ncols 175
nrows 32
xllcorner  500701.125
yllcorner  4178445.75
cellsize 15.0
NODATA_value -9999
2973.98999000000 2966.93311000000 2959.41895000000 2952.05811000000 2944.43091000000 2937.08203000000 2929.44995000000 2921.41895000000 2913.61108000000 2905.13110000000 2897.14893000000 2888.81396000000 2880.52905000000 2872.06299000000 2863.57495000000 2855.16602000000 2846.70508000000 2838.50610000000 2830.71411000000 2822.70410000000 2814.92798000000 2807.55688000000 2800.48999000000 2793.87500000000 2787.35400000000 2780.87207000000 2774.53198000000 2768.43311000000 2762.73901000000 2757.02197000000 2751.66406000000 2746.40405000000 2740.96704000000 2735.70508000000 2730.77100000000 2726.01611000000 2721.02393000000 2716.18188000000 2711.47095000000 2706.50293000000 2701.84399000000 2697.28003000000 2692.96704000000 2688.67896000000 2684.33691000000 2680.40991000000 2676.78003000000 2673.39697000000 2669.81299000000 2665.93311000000 2662.56909000000 2660.07300000000 2657.43604000000 2654.69604000000 2650.78906000000 2647.41089000000 2644.86206000000 2642.74390000000 2641.26807000000 2640.49512000000 2638.94800000000 2636.85303000000 2634.45996000000 2632.00098000000 2629.95703000000 2627.13599000000 2624.26611000000 2622.11304000000 2619.10693000000 2615.16406000000 2611.87793000000 2609.62012000000 2606.85303000000 2603.40088000000 2599.98389000000 2596.83911000000 2593.92603000000 2591.18091000000 2589.44507000000 2587.44189000000 2585.40088000000 2583.30591000000 2581.28809000000 2579.42798000000 2577.11108000000 2574.74609000000 2572.95190000000 2571.46606000000 2570.35400000000 2568.77490000000 2568.27808000000 2567.57202000000 2566.13794000000 2564.64502000000 2564.45703000000 2566.07495000000 2568.79395000000 2574.60596000000 2579.26294000000 2583.26099000000 2587.26709000000 2588.74902000000 2584.65894000000 2571.73096000000 2561.09399000000 2551.13794000000 2542.54492000000 2534.97998000000 2529.06104000000 2520.70703000000 2511.62598000000 2502.57300000000 2493.31299000000 2484.63696000000 2476.84790000000 2469.53296000000 2461.88403000000 2453.78101000000 2445.45288000000 2436.73901000000 2428.86597000000 2421.41211000000 2414.50488000000 2407.66992000000 2400.42603000000 2393.79004000000 2387.29395000000 2381.01611000000 2374.75391000000 2368.46289000000 2362.39404000000 2356.00708000000 2349.89990000000 2343.88696000000 2338.30811000000 2332.86694000000 2327.59497000000 2322.28491000000 2316.52905000000 2310.99609000000 2305.69702000000 2301.02100000000 2296.74512000000 2293.57202000000 2290.27808000000 2286.63208000000 2282.84692000000 2279.38208000000 2276.28589000000 2273.68188000000 2271.21802000000 2267.94800000000 2263.68994000000 2259.85400000000 2257.66211000000 2256.40894000000 2257.93408000000 2262.23096000000 2267.70190000000 2270.55811000000 2270.81494000000 2268.65210000000 2266.04712000000 2264.89697000000 2264.62598000000 2261.96094000000 2261.72095000000 2264.65796000000 2268.88110000000 2274.07910000000 2279.02710000000 2283.10010000000 2290.01099000000 2297.24194000000 2300.90698000000
2974.19189000000 2967.10010000000 2959.94897000000 2952.94995000000 2945.83911000000 2938.57300000000 2930.85400000000 2922.91211000000 2915.29492000000 2907.56909000000 2899.51099000000 2890.84009000000 2882.74902000000 2874.13794000000 2865.35400000000 2856.87207000000 2848.29590000000 2840.20703000000 2832.12012000000 2824.23193000000 2816.28198000000 2809.05005000000 2801.90601000000 2794.98999000000 2788.12793000000 2781.18896000000 2774.98706000000 2768.73901000000 2762.70190000000 2757.10205000000 2751.99390000000 2746.48804000000 2741.19897000000 2736.14111000000 2731.43701000000 2726.69897000000 2721.42407000000 2716.66602000000 2712.14697000000 2707.50806000000 2702.76294000000 2697.62500000000 2693.07104000000 2688.66699000000 2684.17505000000 2680.17310000000 2676.71802000000 2673.82007000000 2670.14209000000 2666.89502000000 2664.76196000000 2662 2658.34790000000 2655.13989000000 2651.80688000000 2647.96899000000 2645.31299000000 2643.15698000000 2641.02002000000 2640.11597000000 2638.30103000000 2636.04907000000 2633.84399000000 2631.91211000000 2630.28101000000 2627.27905000000 2624.75000000000 2622.23706000000 2619.15796000000 2615.59912000000 2612.57104000000 2609.88696000000 2606.21191000000 2602.62207000000 2599.40894000000 2596.27393000000 2593.45898000000 2590.57593000000 2588.23511000000 2585.67700000000 2583.50293000000 2581.51001000000 2579.61890000000 2577.67798000000 2575.28394000000 2572.70801000000 2570.66895000000 2569.44189000000 2568.34399000000 2567.20605000000 2566.31299000000 2565.44189000000 2563.93311000000 2561.89893000000 2560.45410000000 2560.57495000000 2562.11499000000 2565.84912000000 2570.96606000000 2576.57104000000 2578.13501000000 2579.31909000000 2574.67090000000 2565.15796000000 2556.79199000000 2544.94507000000 2536.85400000000 2528.32007000000 2521.77197000000 2515.84106000000 2509.78101000000 2501.97290000000 2492.51709000000 2482 2472.85498000000 2464.90308000000 2457.38403000000 2449.56909000000 2441.64990000000 2433.67090000000 2425.35693000000 2417.42993000000 2410.27808000000 2403.28296000000 2395.92310000000 2389.03003000000 2382.39111000000 2376.16699000000 2369.91309000000 2363.62988000000 2357.29810000000 2350.87305000000 2344.50098000000 2338.31909000000 2332.50610000000 2326.85010000000 2321.37402000000 2316.32593000000 2310.79810000000 2305.42993000000 2300.55396000000 2296.04492000000 2291.45605000000 2287.24292000000 2283.52588000000 2279.92993000000 2276.16406000000 2272.37598000000 2268.84692000000 2265.60205000000 2262.75000000000 2259.90796000000 2256.26099000000 2252.67090000000 2249.82300000000 2248.59912000000 2249.81201000000 2253.60791000000 2258.95996000000 2262.28198000000 2261.97510000000 2259.12109000000 2255.82007000000 2253.98389000000 2253.05200000000 2251.86792000000 2251.10889000000 2253.49390000000 2257.91699000000 2263.18408000000 2267.24902000000 2272.38599000000 2279.78809000000 2285.43896000000 2291.94604000000
2973.75195000000 2966.95898000000 2960.12891000000 2953.15698000000 2946.14600000000 2938.69312000000 2931.37500000000 2923.87109000000 2916.10693000000 2908.20288000000 2900.23291000000 2892.05103000000 2884.12793000000 2875.40698000000 2866.85107000000 2858.08301000000 2849.93604000000 2841.72998000000 2833.69409000000 2825.68799000000 2818.01001000000 2810.74097000000 2803.33008000000 2796.04395000000 2788.88989000000 2782 2775.30811000000 2768.93188000000 2762.82202000000 2757.00806000000 2752.47900000000 2747.27100000000 2742.33789000000 2737.14111000000 2732.31909000000 2727.78711000000 2722.65308000000 2718.04492000000 2713.69702000000 2708.75000000000 2703.30688000000 2698.82397000000 2693.52808000000 2689.16309000000 2684.63892000000 2680.63403000000 2676.87402000000 2673.69409000000 2671.21704000000 2669.07397000000 2666.16895000000 2662.72900000000 2659.48999000000 2656.64307000000 2653.27100000000 2649.95898000000 2647.36401000000 2644.65405000000 2641.46704000000 2638.80591000000 2636.36694000000 2635.17310000000 2633.66797000000 2631.74902000000 2630.17603000000 2627.40698000000 2624.62109000000 2621.52295000000 2618.72803000000 2616.24805000000 2613.16895000000 2609.73389000000 2605.57495000000 2601.44507000000 2598.51709000000 2595.69604000000 2593.05396000000 2590.00708000000 2587.31104000000 2584.52100000000 2582.38989000000 2580.49194000000 2578.83398000000 2576.62207000000 2574.64600000000 2571.88892000000 2569.45190000000 2567.97412000000 2566.78198000000 2565.45288000000 2564.82788000000 2563.97803000000 2562.19409000000 2560.21802000000 2558.40210000000 2556.93408000000 2557.14893000000 2558.31299000000 2561.67407000000 2569.51807000000 2570.96899000000 2569.02295000000 2563.13696000000 2557.01294000000 2549.98608000000 2541.01709000000 2532.81812000000 2522.26489000000 2514.21802000000 2507.53198000000 2502.25293000000 2496.70703000000 2489.20288000000 2478.72510000000 2469.12207000000 2460.78809000000 2453.65088000000 2446.43994000000 2438.86890000000 2431.06201000000 2422.81494000000 2414.77100000000 2406.99292000000 2399.57007000000 2392.30688000000 2385.15894000000 2378.29004000000 2371.80103000000 2365.74194000000 2359.35693000000 2352.78394000000 2346.48511000000 2340.07300000000 2333.69604000000 2327.64111000000 2322.06909000000 2316.86304000000 2311.50293000000 2305.86792000000 2300.27197000000 2295.70288000000 2291.34595000000 2286.81909000000 2282.34302000000 2278.12988000000 2274.26196000000 2270.20190000000 2266.16504000000 2262.05298000000 2258.20410000000 2254.60693000000 2251.12598000000 2247.63501000000 2244.38501000000 2242.16504000000 2240.64697000000 2241.68408000000 2245.69995000000 2250.46899000000 2253.42700000000 2253.53809000000 2249.36694000000 2245.47607000000 2243.34106000000 2242.42798000000 2240.97803000000 2241.19189000000 2243.71802000000 2248.09302000000 2252.97095000000 2257.47095000000 2262.48706000000 2269.92090000000 2276.26196000000 2279.42310000000
2972.93408000000 2966.18896000000 2959.77710000000 2953.09790000000 2946.04712000000 2938.73706000000 2931.41895000000 2924.13306000000 2916.39893000000 2908.45508000000 2900.71411000000 2892.67603000000 2884.63599000000 2876.31689000000 2867.86792000000 2859.64893000000 2851.39600000000 2843.08398000000 2835.01294000000 2827.22705000000 2819.75488000000 2812.28198000000 2804.83301000000 2797.26904000000 2790.38501000000 2783.43408000000 2776.68701000000 2770.20996000000 2763.94702000000 2757.42090000000 2752.71191000000 2747.67212000000 2742.10498000000 2737.02588000000 2732.40405000000 2727.86792000000 2723.15601000000 2718.86304000000 2714.93408000000 2709.38501000000 2703.80103000000 2698.85400000000 2693.80591000000 2689.53906000000 2685.66992000000 2681.62988000000 2677.83496000000 2675.14600000000 2672.91797000000 2670.37891000000 2667.78491000000 2664.81689000000 2662.21997000000 2659.38501000000 2656.50000000000 2653.60010000000 2649.88110000000 2646.56396000000 2643.18091000000 2638.18799000000 2635.18994000000 2633.39893000000 2632.39990000000 2630.21899000000 2628.83911000000 2626.17310000000 2623.04810000000 2620.07593000000 2617.04102000000 2614.63110000000 2611.93896000000 2608.67310000000 2604.87891000000 2600.85791000000 2597.41504000000 2594.90088000000 2592.27588000000 2589.13696000000 2585.92505000000 2583.06299000000 2581.10596000000 2579.46606000000 2578.11011000000 2576.24390000000 2573.94897000000 2571.25195000000 2568.66504000000 2566.69312000000 2565.05811000000 2563.67700000000 2563.48804000000 2562.94092000000 2560.62012000000 2557.92090000000 2556.72192000000 2555.60498000000 2554.28003000000 2553.15308000000 2553.76709000000 2556.38208000000 2560.82007000000 2558.91895000000 2554.46704000000 2550.17310000000 2546.53711000000 2539.17310000000 2530.67798000000 2516.63696000000 2507.55811000000 2500.24609000000 2493.19897000000 2486.25000000000 2479.34399000000 2472.07104000000 2464.18604000000 2456.83594000000 2450.04492000000 2443.13501000000 2436.21289000000 2428.82397000000 2420.98511000000 2413.06909000000 2405.07202000000 2397.20508000000 2389.80005000000 2382.38696000000 2375.33203000000 2368.78003000000 2362.34497000000 2355.97412000000 2349.77197000000 2342.90894000000 2336.43604000000 2329.66504000000 2323.59106000000 2317.74902000000 2313.03003000000 2308.09595000000 2302.08301000000 2296.05591000000 2291.28101000000 2286.93799000000 2282.79102000000 2278.55908000000 2274.38403000000 2270.44189000000 2266.14600000000 2261.55396000000 2256.29492000000 2251.48291000000 2246.92700000000 2242.89209000000 2239.25391000000 2235.93091000000 2234.04590000000 2233.09302000000 2233.47510000000 2237.11108000000 2243.53101000000 2245.04590000000 2244.55200000000 2240.32910000000 2235.60889000000 2232.99292000000 2232.41992000000 2231.06006000000 2231.57300000000 2234.48193000000 2238.34302000000 2242.67505000000 2247.73193000000 2254.41406000000 2259.28809000000 2264.56909000000 2269.21411000000
2972.16406000000 2965.48389000000 2959.18799000000 2952.42700000000 2945.56494000000 2938.47510000000 2931.09302000000 2923.79712000000 2916.37695000000 2908.91309000000 2901.02490000000 2893.10791000000 2884.96509000000 2877.09399000000 2868.77002000000 2860.74390000000 2852.54810000000 2844.49292000000 2836.48096000000 2828.79102000000 2820.95605000000 2813.78296000000 2806.60596000000 2799.27295000000 2793.08008000000 2785.74097000000 2778.37109000000 2770.67603000000 2763.64600000000 2758.15503000000 2753.56689000000 2748.54004000000 2742.57202000000 2737.26709000000 2733.13501000000 2728.39209000000 2723.37109000000 2719.12500000000 2714.80493000000 2708.75000000000 2703.36499000000 2698.92896000000 2694.79810000000 2690.99292000000 2686.67603000000 2683.04712000000 2680.12207000000 2677.43604000000 2674.56396000000 2672.51099000000 2670.79590000000 2668.50708000000 2666.22510000000 2663.17212000000 2659.49512000000 2655.73291000000 2651.61206000000 2647.60010000000 2643.77905000000 2639.64990000000 2636.24609000000 2633.03198000000 2630.95190000000 2629.24707000000 2627.54492000000 2624.78589000000 2621.65894000000 2618.82788000000 2616.35205000000 2613.85400000000 2611.15503000000 2607.90503000000 2604.64893000000 2600.50000000000 2596.78296000000 2594.22607000000 2591.70093000000 2588.64111000000 2585.04102000000 2581.93604000000 2579.81104000000 2578.52490000000 2576.90308000000 2575.32593000000 2573.67090000000 2570.93408000000 2568.31006000000 2566.00098000000 2564.17798000000 2562.85400000000 2562.32593000000 2561.28589000000 2558.78003000000 2556.60889000000 2555.26099000000 2554.11304000000 2551.86792000000 2549.39990000000 2548.43408000000 2548.57007000000 2548.76294000000 2549.01196000000 2546.85693000000 2542.22900000000 2538.98291000000 2534.73511000000 2527.50195000000 2511.85693000000 2502.27588000000 2494.63892000000 2487.61597000000 2480.09912000000 2473.22095000000 2466.73511000000 2460.62109000000 2453.78198000000 2447.07300000000 2440.69604000000 2433.92407000000 2426.94995000000 2419.71509000000 2412.05396000000 2404.27197000000 2395.91797000000 2387.74609000000 2380.00806000000 2372.94312000000 2366.16309000000 2359.52710000000 2353.47290000000 2347.46606000000 2341.45898000000 2334.47095000000 2327.79102000000 2321.27100000000 2315.71094000000 2310.91699000000 2305.63403000000 2300.22705000000 2294.10889000000 2288.17798000000 2284.09692000000 2279.98389000000 2275.85693000000 2271.14209000000 2266.80688000000 2261.66992000000 2255.83691000000 2250.06396000000 2245.48804000000 2240.84302000000 2236.36499000000 2232.37402000000 2228.78101000000 2226.29199000000 2225.20190000000 2225.26294000000 2228.11011000000 2232.75195000000 2236.05200000000 2236.09497000000 2232.32690000000 2226.69800000000 2222.45898000000 2221.29297000000 2221.04199000000 2221.96094000000 2224.69507000000 2228.77808000000 2232.84912000000 2237.94995000000 2242.74097000000 2247.96802000000 2252.48706000000 2258.54395000000
2971.41797000000 2965.08203000000 2958.53003000000 2951.66309000000 2944.93188000000 2937.91089000000 2930.78296000000 2923.54199000000 2916.16211000000 2908.69800000000 2900.97998000000 2893.19189000000 2885.58008000000 2877.78906000000 2869.34204000000 2861.39893000000 2853.36499000000 2845.45190000000 2837.84790000000 2830.59399000000 2823.24512000000 2816.34204000000 2809.25098000000 2802.35400000000 2795.08789000000 2786.05005000000 2778.15308000000 2771.38403000000 2764.91699000000 2759.47803000000 2754.85303000000 2748.87695000000 2742.97095000000 2738.12598000000 2733.66504000000 2728.70288000000 2724.08911000000 2718.34302000000 2713.23193000000 2708.10010000000 2703.74902000000 2699.93701000000 2695.96704000000 2692.31201000000 2688.62891000000 2685.36792000000 2682.56201000000 2679.54810000000 2678.17090000000 2676.76611000000 2674.60596000000 2671.52905000000 2668.29297000000 2664.67896000000 2660.00610000000 2655.13696000000 2650.54712000000 2647.13989000000 2644.05811000000 2640.84009000000 2638.09497000000 2635.10400000000 2632.65503000000 2630.44312000000 2628.33301000000 2625.11304000000 2621.41309000000 2618.38110000000 2616.07397000000 2613.72412000000 2611.00098000000 2608.09497000000 2604.44189000000 2599.74512000000 2596.94897000000 2595.28003000000 2591.82202000000 2588.55688000000 2585.02393000000 2581.91309000000 2579.37988000000 2577.63403000000 2575.98096000000 2574.73193000000 2573.00098000000 2569.92090000000 2567.26196000000 2565.07007000000 2562.61304000000 2561.15698000000 2560.93408000000 2559.57690000000 2557.39307000000 2555.99707000000 2553.96704000000 2551.76392000000 2549.69507000000 2547.70093000000 2545.79102000000 2544.47192000000 2542.33496000000 2540.20093000000 2537.44604000000 2533.20605000000 2528.90503000000 2525.37891000000 2517.92700000000 2506.39111000000 2497.98389000000 2490.34106000000 2483.40088000000 2476.46411000000 2469.92407000000 2463.70190000000 2457.99194000000 2452.15210000000 2445.73999000000 2439.54004000000 2432.89795000000 2425.97998000000 2418.40894000000 2410.80005000000 2402.84497000000 2394.65210000000 2385.89697000000 2377.85400000000 2371.11694000000 2364.68994000000 2358.37012000000 2352.24390000000 2346.64893000000 2340.82104000000 2334.34009000000 2327.92798000000 2322.44897000000 2316.77905000000 2311.08789000000 2305.22900000000 2299.48511000000 2293.14795000000 2287.32104000000 2283.00903000000 2278.46899000000 2273.49707000000 2267.84302000000 2262.56006000000 2256.77588000000 2250.90796000000 2244.75903000000 2239.97192000000 2235.76807000000 2230.63501000000 2226.15601000000 2222.53809000000 2219.85791000000 2217.68604000000 2217.01611000000 2219.26196000000 2223.46606000000 2227.54590000000 2226.80688000000 2223.26196000000 2218.38403000000 2214.05811000000 2211.99097000000 2211.28711000000 2212.08911000000 2214.53711000000 2218.33008000000 2222.96899000000 2227.89209000000 2231.73389000000 2237.46606000000 2242.08105000000 2247.74390000000
2970.89795000000 2964.55908000000 2957.96704000000 2951.25293000000 2944.44409000000 2937.45996000000 2930.40698000000 2923.73706000000 2916.47900000000 2909.09912000000 2901.56396000000 2893.82397000000 2886.01489000000 2878.48901000000 2870.65601000000 2863.33008000000 2855.31494000000 2846.82104000000 2839.09399000000 2831.59595000000 2823.98608000000 2817.20410000000 2810.35010000000 2804.09595000000 2795.94507000000 2788.12305000000 2781.00708000000 2773.84497000000 2767.12500000000 2761.21289000000 2756.71606000000 2751.26196000000 2745.54907000000 2740.01709000000 2735.48901000000 2730.69604000000 2726 2719.48608000000 2713.77490000000 2708.83301000000 2705.66895000000 2701.43994000000 2697.06812000000 2693.47412000000 2691.16895000000 2688.58398000000 2685.68701000000 2683.17310000000 2680.91797000000 2678.77197000000 2675.69312000000 2671.44507000000 2668.41895000000 2664.86499000000 2660.04004000000 2655.45190000000 2651.36401000000 2647.54810000000 2644.19702000000 2641.20703000000 2638.62695000000 2635.98804000000 2633.82202000000 2631.41089000000 2628.39600000000 2624.72095000000 2620.77100000000 2617.61499000000 2615.30688000000 2612.59912000000 2609.93188000000 2606.81299000000 2603.91406000000 2600.97803000000 2598.78101000000 2595.72192000000 2592.65698000000 2590.06396000000 2586.29395000000 2582.53809000000 2579.08203000000 2577.28711000000 2575.34106000000 2573.28394000000 2571.87793000000 2568.85693000000 2565.93701000000 2563.91797000000 2561.42993000000 2559.48901000000 2559.21899000000 2558.70801000000 2555.94312000000 2553.97192000000 2551.95605000000 2549.80298000000 2547.08789000000 2545.53003000000 2544.47607000000 2542.36597000000 2539.92798000000 2535.65796000000 2531.10010000000 2526.24292000000 2521.47705000000 2516.62793000000 2510.61304000000 2502.24707000000 2494.52710000000 2486.92700000000 2479.70093000000 2473.62207000000 2467.75391000000 2462.43408000000 2457.15308000000 2452.77490000000 2447.41699000000 2440.38501000000 2432.87500000000 2425.27905000000 2417.14307000000 2408.61304000000 2400.27905000000 2392.28906000000 2384.13403000000 2376.65894000000 2369.86401000000 2364.11792000000 2357.58105000000 2351.87305000000 2346.02905000000 2339.86792000000 2334.10498000000 2328.88501000000 2324.81592000000 2319.42798000000 2311.44702000000 2304.47095000000 2298.75000000000 2292.74512000000 2287.24097000000 2281.87207000000 2277.10889000000 2271.75488000000 2265.41309000000 2258.94312000000 2252.22803000000 2246.30298000000 2241.02490000000 2235.97192000000 2230.69995000000 2225.12402000000 2220.02808000000 2216.23291000000 2213.44800000000 2210.92090000000 2209.13208000000 2210.14893000000 2213.34595000000 2217.45703000000 2217.13794000000 2213.32495000000 2208.51489000000 2204.85889000000 2203.32300000000 2202.58008000000 2202.86499000000 2204.95190000000 2209.16895000000 2213.19995000000 2217.72290000000 2221.39404000000 2225.55005000000 2231.37695000000 2238.04297000000
2971.50195000000 2965.22705000000 2958.66895000000 2952.29102000000 2944.94092000000 2937.70605000000 2930.22900000000 2923.58911000000 2917.31104000000 2909.80908000000 2902.14697000000 2894.26001000000 2885.82690000000 2879.03394000000 2871.63403000000 2863.94995000000 2855.88989000000 2847.96997000000 2840.73291000000 2833.54004000000 2826.35303000000 2819.37695000000 2812.80688000000 2805.59204000000 2798.57788000000 2791.68091000000 2785.06201000000 2778.64502000000 2771.73193000000 2765.31592000000 2759.83398000000 2754.30005000000 2747.61694000000 2740.94702000000 2734.93188000000 2729.85791000000 2725.33911000000 2720.48193000000 2715.29712000000 2710.25610000000 2707.16089000000 2703.75610000000 2699.64404000000 2696.85791000000 2694.24292000000 2690.79810000000 2688.10205000000 2685.01294000000 2681.16211000000 2678.36304000000 2675.23193000000 2671.64990000000 2667.32300000000 2663.68188000000 2659.31494000000 2655.20093000000 2651.72803000000 2647.89209000000 2644.49194000000 2641.68896000000 2639.09009000000 2636.78809000000 2634.70801000000 2631.76294000000 2627.48706000000 2624.01709000000 2620.48193000000 2617.32202000000 2614.26196000000 2611.54199000000 2608.34692000000 2605.19189000000 2602.55005000000 2601.23706000000 2599.57593000000 2595.19507000000 2591.70410000000 2589.08301000000 2586.33911000000 2583.49902000000 2580.12598000000 2577.61401000000 2575.11890000000 2572.12598000000 2570.11890000000 2567.27710000000 2564.61499000000 2562.50098000000 2560.38599000000 2557.94092000000 2556.50903000000 2555.75000000000 2554.00806000000 2551.38403000000 2549.39502000000 2547.83911000000 2545.12402000000 2542.82104000000 2542.04395000000 2540.14990000000 2537.92212000000 2533.91211000000 2528.15405000000 2522.76001000000 2517.59106000000 2512.13403000000 2506.62109000000 2500.25000000000 2492.47412000000 2485.07397000000 2478.16699000000 2472.04004000000 2466.02710000000 2461.90308000000 2458.58301000000 2455.01392000000 2449.19409000000 2441.56201000000 2433.57495000000 2425.46289000000 2416.72607000000 2407.93799000000 2399.02197000000 2391.36108000000 2383.29907000000 2376.97705000000 2370.38208000000 2364.54395000000 2358.74390000000 2352.96704000000 2348.00708000000 2342.79712000000 2336.58301000000 2330.38501000000 2325.21289000000 2319.93188000000 2312.72607000000 2305.44604000000 2298.52295000000 2293.00806000000 2287.74292000000 2281.68896000000 2276.03198000000 2269.33691000000 2262.18506000000 2255.05811000000 2248.26099000000 2242.77002000000 2237.66699000000 2232 2226.21704000000 2220.01611000000 2214.58594000000 2210.34009000000 2206.94189000000 2204.74194000000 2202.89111000000 2201.95288000000 2202.99194000000 2206.11694000000 2206.45605000000 2203.26611000000 2198.79102000000 2196.00098000000 2194.36499000000 2193.79712000000 2194.46411000000 2196.12207000000 2198.66602000000 2203.42896000000 2207.83911000000 2210.88403000000 2215.15991000000 2221.74512000000 2227.79297000000
2969.74512000000 2963.70190000000 2958.59399000000 2952.74292000000 2944.75806000000 2937.32495000000 2930.59106000000 2924.33496000000 2918.01392000000 2910.86499000000 2903.20508000000 2895.14600000000 2887.14307000000 2880.19092000000 2873.27905000000 2865.76294000000 2858.24097000000 2850.63892000000 2842.79492000000 2835.75098000000 2829.13110000000 2822.05493000000 2814.98706000000 2808.30005000000 2801.31494000000 2794.31909000000 2787.57690000000 2780.82397000000 2773.01001000000 2765.65698000000 2759.28491000000 2753.54199000000 2747.33789000000 2739.71509000000 2733.34204000000 2728.13306000000 2724.40088000000 2719.82788000000 2716.47803000000 2712.84204000000 2709.89893000000 2706.42212000000 2702.93701000000 2698.70288000000 2694.91504000000 2691.33008000000 2688.76709000000 2685.95703000000 2682.27197000000 2679.06104000000 2675.22900000000 2670.71094000000 2666.22510000000 2661.82910000000 2658.32495000000 2655.08594000000 2651.53589000000 2648.09399000000 2645.03809000000 2641.95801000000 2639.10498000000 2636.90796000000 2634.83496000000 2631.82495000000 2628.25806000000 2624.56201000000 2620.29004000000 2616.28589000000 2612.15503000000 2609.19800000000 2606.19409000000 2603.36206000000 2601.09302000000 2599.52710000000 2597.98291000000 2594.07202000000 2590.05200000000 2587.79907000000 2585.39209000000 2582.85205000000 2580.24609000000 2577.48999000000 2574.32202000000 2571.42090000000 2568.35205000000 2565.27100000000 2562.76807000000 2560.78003000000 2558.94995000000 2556.24902000000 2554.55908000000 2553.36401000000 2551.72192000000 2548.80200000000 2547.79492000000 2546.10107000000 2543.06299000000 2539.88989000000 2538.13306000000 2536.95508000000 2535.32788000000 2530.50000000000 2525.51904000000 2520.78906000000 2515.28906000000 2510.18896000000 2504.53101000000 2498.11890000000 2491.69897000000 2484.56201000000 2477.30200000000 2471.48901000000 2466.90991000000 2463.94312000000 2461.02295000000 2457.17700000000 2451.40601000000 2443.73291000000 2435.59692000000 2426.73804000000 2417.91895000000 2408.79297000000 2400.13403000000 2391.85205000000 2384.12988000000 2377.16504000000 2370.42407000000 2364.82300000000 2360.13892000000 2355.30688000000 2351.20288000000 2346.65698000000 2340.53589000000 2333.70898000000 2327.76807000000 2321.06909000000 2313.80200000000 2306.12793000000 2299.84106000000 2294.09497000000 2287.37988000000 2281.13989000000 2274.91992000000 2268.00391000000 2260.60693000000 2252.76489000000 2245.44409000000 2239.54004000000 2234.50488000000 2228.68701000000 2221.91992000000 2215.15698000000 2209.84204000000 2205.70093000000 2202.27905000000 2199.70093000000 2197.34204000000 2195.21899000000 2194.02002000000 2193.63306000000 2194.69189000000 2192.92407000000 2190.27808000000 2187.73608000000 2186.17993000000 2185.28394000000 2186.22705000000 2188.26294000000 2189.69507000000 2193.45410000000 2196.77100000000 2199.85010000000 2205.61499000000 2212.76611000000 2218.88208000000
2972.08008000000 2966.41504000000 2961.40991000000 2955.79810000000 2949.18091000000 2941.42212000000 2933.35791000000 2926.24707000000 2920.26392000000 2913.52393000000 2906.04297000000 2898.22510000000 2889.52588000000 2881.79712000000 2874.59009000000 2866.97095000000 2859.03491000000 2851.61011000000 2844.32910000000 2838.07202000000 2830.92090000000 2823.24292000000 2815.05908000000 2807.97290000000 2800.92505000000 2793.84204000000 2786.38208000000 2778.90796000000 2771.49707000000 2764.55200000000 2757.69702000000 2751.09009000000 2744.91406000000 2738.90405000000 2733.56006000000 2728.92212000000 2725.03296000000 2720.75708000000 2717.96094000000 2714.80591000000 2711.09912000000 2707.36401000000 2703.31201000000 2698.12109000000 2694.29712000000 2691.05005000000 2688.20410000000 2685.36694000000 2681.96606000000 2678.57104000000 2674.61304000000 2668.97705000000 2664.87012000000 2660.80688000000 2657.32202000000 2655.06494000000 2651.87109000000 2648.07593000000 2645.01807000000 2641.76709000000 2639.12207000000 2636.84497000000 2634.65698000000 2631.66895000000 2628.78296000000 2624.30908000000 2619.73511000000 2615.69995000000 2611.96509000000 2608.34009000000 2604.82788000000 2601.36206000000 2598.61304000000 2597.35400000000 2595.41895000000 2592.44800000000 2589.00391000000 2586.41406000000 2584.70996000000 2583.02710000000 2581.06299000000 2577.85205000000 2574.98193000000 2571.22192000000 2567.13403000000 2564.18799000000 2561.38306000000 2559.02710000000 2556.41895000000 2554.28394000000 2552.33496000000 2550.96704000000 2549.55908000000 2547.42310000000 2545.56494000000 2544.04907000000 2540.02588000000 2536.28809000000 2533.86890000000 2533.25806000000 2531.77808000000 2526.78809000000 2522.18701000000 2518.16602000000 2514.17993000000 2509.43994000000 2502.92603000000 2496.40991000000 2490.40991000000 2484.76001000000 2479.19604000000 2473.90698000000 2469.52710000000 2466.58203000000 2462.97607000000 2459.35791000000 2453.63403000000 2445.72095000000 2436.96997000000 2427.59692000000 2418.69995000000 2410.23096000000 2401.89600000000 2393.50000000000 2385.87500000000 2379.29590000000 2373.10791000000 2367.05811000000 2362.33911000000 2358.42310000000 2354.39404000000 2348.62012000000 2341.68506000000 2335.00610000000 2328.01294000000 2320.90405000000 2313.77295000000 2306.50293000000 2300.34692000000 2293.51807000000 2286.11011000000 2278.92090000000 2272.34912000000 2265.44409000000 2258.29907000000 2251.27393000000 2243.95288000000 2236.98999000000 2230.57910000000 2225.13892000000 2218.76611000000 2211.79492000000 2206.12793000000 2201.89502000000 2198.20190000000 2195.21802000000 2192.73901000000 2190.13501000000 2187.83398000000 2185.90601000000 2184.55908000000 2182.83691000000 2180.66309000000 2179.51001000000 2178.72095000000 2178.07300000000 2178.16504000000 2179.65601000000 2181.53101000000 2182.98608000000 2186.12109000000 2190.78711000000 2196.91992000000 2202.31812000000 2209.59692000000
2974.29395000000 2968.29297000000 2963.08398000000 2958.06299000000 2951.36304000000 2942.37598000000 2933.96289000000 2927.03711000000 2920.79492000000 2914.26392000000 2906.26001000000 2898.51392000000 2890.51807000000 2882.88306000000 2876.02710000000 2868.73389000000 2861.23999000000 2853.72998000000 2845.76294000000 2838.06592000000 2830.14307000000 2822.64404000000 2814.91602000000 2806.65503000000 2799.16699000000 2792.32300000000 2784.87988000000 2778.03296000000 2771.14990000000 2764.63403000000 2757.75195000000 2750.81689000000 2744.98608000000 2739.65991000000 2735.30811000000 2731.48804000000 2727.53394000000 2723.13696000000 2718.90796000000 2715.49390000000 2711.19995000000 2706.83594000000 2702.95410000000 2698.51392000000 2694.39893000000 2690.65405000000 2687.55811000000 2684.64209000000 2680.91699000000 2677.08301000000 2673.45190000000 2668.19702000000 2663.89111000000 2660.43604000000 2658.56396000000 2656.71191000000 2652.86108000000 2649.46191000000 2646.21509000000 2642.52100000000 2639.12891000000 2636.90210000000 2633.37500000000 2630.19312000000 2626.34106000000 2623.20288000000 2619.84399000000 2615.71509000000 2612.04712000000 2607.75195000000 2603.81494000000 2600.26904000000 2597.37402000000 2594.58301000000 2592.47607000000 2590.67505000000 2588.23511000000 2585.20288000000 2583.37891000000 2582.39697000000 2580.01611000000 2576.86499000000 2574.05811000000 2570.43604000000 2566.73511000000 2563.61011000000 2561.10498000000 2557.98291000000 2554.84692000000 2552.31812000000 2550.17212000000 2548.42310000000 2547.14893000000 2545.68994000000 2543.38306000000 2540.61108000000 2536.58691000000 2532.69995000000 2529.69409000000 2528.85693000000 2528.23706000000 2524.14795000000 2519.28491000000 2514.86792000000 2510.84302000000 2505.77490000000 2500.20703000000 2494.47607000000 2488.49902000000 2483.81494000000 2479.73511000000 2475.13501000000 2470.87988000000 2466.94189000000 2463.01611000000 2457.55103000000 2451.68091000000 2444.25195000000 2435.84497000000 2426.90088000000 2418.75195000000 2411.17896000000 2403.30591000000 2395.17310000000 2388.13501000000 2381.72095000000 2376.42798000000 2370.39795000000 2365.13989000000 2360.79199000000 2354.26392000000 2346.85400000000 2339.40210000000 2331.76392000000 2324.03589000000 2316.82788000000 2310.64209000000 2304.63403000000 2298.65405000000 2292.45996000000 2285.75488000000 2278.69995000000 2270.67896000000 2262.84399000000 2255.81909000000 2249.02490000000 2241.27588000000 2233.84692000000 2226.74805000000 2220.87793000000 2214.86206000000 2208.87598000000 2204.15210000000 2199.60107000000 2196.19995000000 2192.32910000000 2188.92407000000 2186.02295000000 2184.10400000000 2182.02197000000 2180.46997000000 2178.59009000000 2176.01489000000 2174.01489000000 2173.23291000000 2172.48096000000 2172.06812000000 2173.14990000000 2174.38403000000 2175.32593000000 2176.96289000000 2181.06201000000 2189.13599000000 2194.08691000000 2200.01807000000
2976.18994000000 2970.03394000000 2963.96289000000 2957.45801000000 2950.77710000000 2942.05298000000 2933.81812000000 2926.94092000000 2919.78491000000 2912.48193000000 2904.00806000000 2896.67798000000 2889.41992000000 2881.95410000000 2875.22900000000 2868.71289000000 2862.27002000000 2854.35693000000 2845.75488000000 2837.72998000000 2830 2822.23608000000 2814.61499000000 2807.68799000000 2801.04102000000 2794.88501000000 2787.90210000000 2780.62695000000 2773.52295000000 2766.78101000000 2759.65601000000 2752.17505000000 2746.22290000000 2741.94312000000 2738.67896000000 2734.98901000000 2729.33691000000 2724.01904000000 2719.10400000000 2714.65405000000 2710.43408000000 2706.11206000000 2701.71411000000 2697.56006000000 2694.35010000000 2691.20996000000 2688.18311000000 2684.92700000000 2681.14600000000 2677.26611000000 2673.21094000000 2669.12500000000 2665.89697000000 2663.46411000000 2661.49902000000 2659.25293000000 2655.70801000000 2651.10791000000 2647.35010000000 2643.32397000000 2639.59790000000 2636.15210000000 2632.31006000000 2629.01904000000 2625.56104000000 2622.88696000000 2619.46094000000 2615.54102000000 2612.01099000000 2607.69702000000 2603.49609000000 2600.25903000000 2597.55298000000 2593.87012000000 2590.27710000000 2588.50903000000 2586.85791000000 2584.95703000000 2582.67310000000 2581.18091000000 2578.65210000000 2575.60498000000 2572.82788000000 2569.96704000000 2566.51001000000 2563.40894000000 2560.75098000000 2557.38794000000 2553.75610000000 2550.68188000000 2548.03711000000 2545.62988000000 2544.04395000000 2542.28906000000 2540.44409000000 2537.46802000000 2533.84204000000 2530.24390000000 2526.09497000000 2524.75708000000 2524.13794000000 2521.00195000000 2516.84204000000 2512.13403000000 2507.58691000000 2502.10010000000 2496.81494000000 2492.06812000000 2486.69312000000 2482.32300000000 2478.75708000000 2473.51904000000 2466.88110000000 2462.25391000000 2457.39111000000 2452.01294000000 2446.13306000000 2441.50806000000 2433.92212000000 2425.68188000000 2419.19092000000 2412.83911000000 2404.90796000000 2397.11011000000 2390.68799000000 2384.77295000000 2378.80298000000 2373.23706000000 2366.70288000000 2359.59009000000 2351.16602000000 2342.51392000000 2334.47705000000 2327.06909000000 2319.63794000000 2312.57593000000 2305.86304000000 2300.35693000000 2294.80200000000 2289.90503000000 2284.06396000000 2277.19702000000 2270.23706000000 2262.66211000000 2254.26489000000 2245.79712000000 2238.57007000000 2231.12207000000 2223.29810000000 2216.88110000000 2210.91797000000 2205.08789000000 2201.70410000000 2197.45410000000 2193.41699000000 2189.33594000000 2185.90308000000 2182.30591000000 2179.52490000000 2177.96802000000 2176.93701000000 2175.96411000000 2172.37891000000 2169.65308000000 2168.78003000000 2167.75000000000 2167.08203000000 2168.08301000000 2169.27197000000 2169.87891000000 2170.82495000000 2173.77100000000 2179.92090000000 2187.22900000000 2193.79297000000
2973.55688000000 2966.63501000000 2960.52393000000 2954.16089000000 2948.09204000000 2941.61597000000 2934.13696000000 2927.22705000000 2919.51196000000 2911.35303000000 2903.70898000000 2896.83691000000 2890.45605000000 2883.24194000000 2876.11499000000 2869.82690000000 2862.93506000000 2855.02490000000 2846.65894000000 2837.81201000000 2829.59497000000 2821.60400000000 2814.56299000000 2808.15088000000 2801.46704000000 2795.28809000000 2788.34497000000 2781.19800000000 2774.19312000000 2767.00708000000 2759.62402000000 2753.11401000000 2748.32397000000 2745.28198000000 2741.85889000000 2736.12891000000 2729.65601000000 2724.01392000000 2718.18091000000 2713.42505000000 2709.08594000000 2704.65088000000 2701.32593000000 2697.57397000000 2694.42993000000 2691.95288000000 2689.11792000000 2685.59204000000 2681.71899000000 2678.07910000000 2674.55103000000 2671.27588000000 2668.94092000000 2666.06812000000 2663.25391000000 2661.23193000000 2657.48901000000 2653.72998000000 2650.00195000000 2644.47607000000 2640.52588000000 2637.14307000000 2632.68506000000 2628.94800000000 2625.85303000000 2622.95190000000 2619.27905000000 2615.76709000000 2612.25708000000 2608.06592000000 2603.97095000000 2600.75293000000 2598.30396000000 2594.57397000000 2590.36890000000 2587.42700000000 2585.37109000000 2583.92603000000 2581.84302000000 2579.21606000000 2576.77710000000 2574.00903000000 2571.03394000000 2568.21191000000 2565.81592000000 2563.49902000000 2560.80811000000 2557.06201000000 2553.21802000000 2549.70093000000 2546.39990000000 2543.01611000000 2540.41309000000 2538.43701000000 2537.18091000000 2534.21704000000 2530.70898000000 2527.46411000000 2524.58594000000 2521.66309000000 2519.69189000000 2517.78394000000 2514.95508000000 2510.17090000000 2504.57300000000 2498.91992000000 2495.31201000000 2490.24292000000 2485.20898000000 2481.33105000000 2476.98999000000 2470.39697000000 2463.21606000000 2456.64502000000 2450.86011000000 2445.88306000000 2441.71411000000 2438.39600000000 2432.86011000000 2427.07300000000 2421.23901000000 2415.09106000000 2406.86694000000 2399.02905000000 2392.56812000000 2386.49097000000 2380.13892000000 2373.00293000000 2365.37207000000 2356.74512000000 2346.96802000000 2338.49292000000 2331.02002000000 2323.65894000000 2317.02588000000 2309.91895000000 2303.38501000000 2297.62012000000 2291.66504000000 2286.36890000000 2281.57788000000 2274.67896000000 2267.48999000000 2260.75000000000 2252.82397000000 2244.00098000000 2235.31494000000 2227.70898000000 2220.17896000000 2213.46094000000 2207.23608000000 2201.66797000000 2198.12695000000 2193.67212000000 2189.37598000000 2185.95996000000 2182.12793000000 2178.60303000000 2175.09399000000 2171.93091000000 2169.82690000000 2168.38306000000 2165.61304000000 2163.48999000000 2162.69995000000 2162.18091000000 2161.29492000000 2161.86011000000 2162.96704000000 2164.29199000000 2166.12305000000 2169.71802000000 2175.07104000000 2182.70801000000 2189.27710000000
2972.80688000000 2967.12500000000 2962.26904000000 2957.41797000000 2950.88501000000 2944.31494000000 2937.06812000000 2929.34790000000 2920.62793000000 2911.28711000000 2903.86499000000 2897.33203000000 2890.34204000000 2882.91797000000 2875.52588000000 2868.55591000000 2861.32690000000 2853.93311000000 2846.21899000000 2838.31592000000 2830.60107000000 2823.22192000000 2816.70288000000 2809.01489000000 2800.74902000000 2793.58105000000 2787.01807000000 2780.63208000000 2774.49609000000 2767.42212000000 2760.65503000000 2755.54297000000 2751.59399000000 2747.42798000000 2742.49097000000 2736.75708000000 2730.56104000000 2724.31909000000 2718.99902000000 2714.38794000000 2710.13208000000 2706.89404000000 2703.12207000000 2699.61401000000 2696.30396000000 2692.88501000000 2689.69995000000 2685.96509000000 2681.87305000000 2678.83398000000 2675.91992000000 2673.35010000000 2670.42993000000 2667.19507000000 2664.29712000000 2661.66992000000 2659.04810000000 2655.63208000000 2651.77197000000 2647.03809000000 2643.00806000000 2639.33911000000 2633.93701000000 2630.51807000000 2627.44897000000 2623.66602000000 2619.56396000000 2615.44702000000 2611.80005000000 2608.07300000000 2604.56104000000 2601.47510000000 2598.49390000000 2594.44189000000 2590.06006000000 2586.54907000000 2583.46606000000 2582.02905000000 2580.33398000000 2577.57593000000 2574.96191000000 2572.18408000000 2569.37793000000 2566.48608000000 2564.18506000000 2562.44604000000 2559.35107000000 2556.45508000000 2552.71289000000 2548.74707000000 2545.70801000000 2541.99292000000 2538.26099000000 2535.27710000000 2533.36890000000 2530.39209000000 2528.60889000000 2525.69995000000 2522.55200000000 2518.79199000000 2517.02588000000 2514.51294000000 2511.05908000000 2507.32202000000 2501.19800000000 2495.32593000000 2492.11597000000 2488.50293000000 2483.61206000000 2480.18799000000 2476.50610000000 2469.36304000000 2461.16992000000 2453.80103000000 2447.31592000000 2442.97510000000 2440.54395000000 2437.04102000000 2433.19507000000 2428.94507000000 2423.17993000000 2416.15991000000 2407.90894000000 2400.17212000000 2392.26392000000 2384.64697000000 2377.48706000000 2370.62012000000 2362.71802000000 2353.56006000000 2343.68799000000 2335.30493000000 2328.69312000000 2322.85107000000 2316.87207000000 2310.05103000000 2303.55688000000 2296.84497000000 2290.69312000000 2284.40894000000 2278.98608000000 2272.88403000000 2266.63794000000 2259.21411000000 2250.94604000000 2242.05811000000 2232.69604000000 2224.12695000000 2216.36108000000 2209.86597000000 2203.65796000000 2197.89893000000 2194.36401000000 2190.29492000000 2186.17798000000 2182.20508000000 2178.07788000000 2174.86890000000 2170.71802000000 2166.35498000000 2162.82007000000 2160.67310000000 2158.24194000000 2156.58105000000 2155.89404000000 2155.50806000000 2154.59204000000 2155.04810000000 2156.35303000000 2158.24292000000 2160.63501000000 2165.19507000000 2171.07495000000 2178.02002000000 2184.74805000000
2975.43506000000 2970.00391000000 2965.72095000000 2960.43701000000 2953.84692000000 2945.88696000000 2936.93091000000 2928.67310000000 2921.11304000000 2914.37207000000 2907.73096000000 2899.51196000000 2890.99902000000 2882.60791000000 2875.10889000000 2867.92090000000 2859.48706000000 2852.21094000000 2845.50000000000 2838.61792000000 2830.65601000000 2823.38696000000 2816.38208000000 2808.41089000000 2800.57495000000 2793.81104000000 2787.68408000000 2781.69800000000 2775.88306000000 2769.19800000000 2763.86304000000 2758.34790000000 2753.37109000000 2748.36890000000 2743.52393000000 2739.22998000000 2733.83594000000 2726.59912000000 2720.12695000000 2715.06812000000 2711.40503000000 2708.82593000000 2704.65796000000 2700.18311000000 2696.75806000000 2693.80396000000 2690.26392000000 2685.68994000000 2681.46606000000 2678.43994000000 2675.57495000000 2673.15088000000 2670.90308000000 2668.42896000000 2665.59912000000 2662.25391000000 2658.72412000000 2654.76611000000 2651.40601000000 2647.83691000000 2644.51807000000 2640.51904000000 2635.40503000000 2632.01709000000 2628.47900000000 2623.65210000000 2619.05005000000 2614.26196000000 2610.39111000000 2606.94995000000 2604.46289000000 2601.83105000000 2598.48096000000 2594.15698000000 2589.78491000000 2585.91699000000 2581.92993000000 2579.42407000000 2576.67700000000 2574.17603000000 2571.59204000000 2569.54492000000 2567.76392000000 2565.01904000000 2562.36499000000 2560.14893000000 2557.68188000000 2555.26489000000 2551.75488000000 2548.28394000000 2544.91211000000 2541.23096000000 2537.56006000000 2534.01001000000 2530.97192000000 2528.18188000000 2525.75098000000 2523.28809000000 2520.36401000000 2517.06299000000 2513.53711000000 2510.45190000000 2506.85889000000 2502.65210000000 2497.48389000000 2491.91504000000 2487.35889000000 2484.42798000000 2481.78589000000 2478.68188000000 2474.29199000000 2468.16992000000 2461.82202000000 2454.37891000000 2447.57788000000 2442.44702000000 2440.56494000000 2437.18799000000 2432.46509000000 2428.75293000000 2423.39307000000 2415.79199000000 2406.01489000000 2396.86694000000 2387.79590000000 2379.71899000000 2372.34204000000 2365.79492000000 2358.97412000000 2350.68799000000 2340.85889000000 2332.43604000000 2325.78101000000 2321.19995000000 2316.56689000000 2310.82300000000 2304.40088000000 2297.50610000000 2290.65503000000 2284.48096000000 2278.82202000000 2271.44897000000 2264.88110000000 2258.05493000000 2250.50391000000 2241.30103000000 2231.17505000000 2222.05005000000 2213.64600000000 2206.43604000000 2200.07300000000 2194.14111000000 2189.95898000000 2186.19507000000 2182.47900000000 2178.74512000000 2174.22510000000 2169.96704000000 2165.52808000000 2160.44800000000 2156.50391000000 2153.39893000000 2151.04199000000 2149.48706000000 2148.40894000000 2147.80298000000 2147.51611000000 2148.90894000000 2150.19092000000 2152.27393000000 2155.55298000000 2159.76807000000 2165.84399000000 2172.63696000000 2180.63892000000
2978.06006000000 2973.02295000000 2968.67212000000 2962.41309000000 2953.51099000000 2945.15088000000 2937.37891000000 2930.63599000000 2924.22095000000 2917.56201000000 2910.30005000000 2902.62305000000 2893.39404000000 2883.57690000000 2874.84204000000 2866.78809000000 2858.84302000000 2851.57910000000 2844.12500000000 2836.85010000000 2829.25098000000 2821.52295000000 2814.28906000000 2807.71899000000 2801.90601000000 2796.86597000000 2790.87988000000 2784.42505000000 2777.91406000000 2771.62500000000 2766.11401000000 2759.92407000000 2754.06201000000 2748.49292000000 2744.11694000000 2739.43701000000 2734.10889000000 2727.72095000000 2721.57495000000 2716.11499000000 2712.25000000000 2708.93311000000 2706.04199000000 2702.27905000000 2698.70508000000 2695.06006000000 2690.64697000000 2686.37012000000 2682.92896000000 2680.21704000000 2676.81909000000 2672.96509000000 2670.42798000000 2668.20605000000 2665.90503000000 2662.88110000000 2658.39600000000 2653.96509000000 2650.37012000000 2647.09692000000 2643.16895000000 2639.70898000000 2635.83496000000 2631.65088000000 2627.46606000000 2623.41895000000 2618.53003000000 2613.14307000000 2609.05908000000 2606.50000000000 2604.30908000000 2602.10498000000 2598.53394000000 2594.21094000000 2589.72412000000 2585.94507000000 2582.05811000000 2578.52710000000 2575.44092000000 2572.52808000000 2570.09692000000 2567.63110000000 2565.43701000000 2563.21411000000 2560.59204000000 2558.50610000000 2556.31689000000 2554.05493000000 2551.48193000000 2548.16797000000 2544.46704000000 2540.92212000000 2537.51611000000 2533.40601000000 2529.72192000000 2526.62500000000 2524.03906000000 2520.75806000000 2517.79492000000 2514.63696000000 2510.87109000000 2506.75708000000 2501.97803000000 2497.24097000000 2492.64404000000 2488.21094000000 2484.06006000000 2480.56104000000 2478.10010000000 2475.98511000000 2473.48999000000 2468.23608000000 2461.57104000000 2455.02588000000 2448.47607000000 2442.89697000000 2440.89795000000 2439.15210000000 2433.77588000000 2428.61011000000 2420.58496000000 2411.97412000000 2402.52490000000 2393.28809000000 2383.25391000000 2373.63989000000 2365.56299000000 2358.99609000000 2352.43506000000 2345.75488000000 2337.51611000000 2329.19092000000 2321.54590000000 2316.21509000000 2312.22607000000 2308.47192000000 2304.18188000000 2297.63892000000 2291.03394000000 2284.38403000000 2277.74097000000 2270.33301000000 2263.19507000000 2256.11597000000 2248.21802000000 2239.73389000000 2230.64404000000 2221.25708000000 2211.77905000000 2203.33789000000 2196.06006000000 2190.46606000000 2186.30811000000 2182.52002000000 2178.45508000000 2174.92700000000 2170.19897000000 2165.83691000000 2161.59399000000 2155.91406000000 2150.99805000000 2147.54590000000 2145.20898000000 2143.06104000000 2141.53394000000 2140.44092000000 2140.42700000000 2141.66089000000 2143.61401000000 2145.23706000000 2149.10498000000 2153.25293000000 2159.02393000000 2165.17090000000 2172.80396000000
2979.22412000000 2974.87305000000 2968.49194000000 2961.52197000000 2954.44702000000 2947.57788000000 2940.97290000000 2934.62207000000 2927.81812000000 2921.09106000000 2913.60400000000 2904.97607000000 2895.32788000000 2885.69507000000 2876.18408000000 2867.96094000000 2860.65698000000 2852.83203000000 2845.59106000000 2838.55688000000 2831.02100000000 2823.82788000000 2817.06006000000 2811.91504000000 2806.29004000000 2800.15503000000 2793.78101000000 2787.35010000000 2781.09009000000 2774.13403000000 2766.77393000000 2759.76294000000 2753.77393000000 2748.54712000000 2743.62500000000 2739.39893000000 2735.05688000000 2729.36792000000 2723.54810000000 2718.17505000000 2714.30103000000 2710.66211000000 2707.22998000000 2703.85303000000 2700.93506000000 2697.82593000000 2693.96094000000 2689.80396000000 2686.53198000000 2683.41089000000 2679.21411000000 2674.53003000000 2670.73096000000 2666.77905000000 2664.02588000000 2660.77100000000 2655.96606000000 2651.28198000000 2647.30103000000 2643.52490000000 2639.72412000000 2637.10303000000 2634.60400000000 2630.87012000000 2626.75098000000 2622.64111000000 2618.15503000000 2612.44409000000 2607.86792000000 2605.03003000000 2603.16309000000 2601.15405000000 2597.98096000000 2594.48291000000 2590.30298000000 2586.10889000000 2582.26611000000 2577.90796000000 2574.75806000000 2571.99902000000 2569.51294000000 2566.73096000000 2564.39795000000 2561.45703000000 2558.41309000000 2557.22803000000 2555.49902000000 2553.26196000000 2551.41211000000 2547.60498000000 2543.10010000000 2539.78711000000 2536.50195000000 2532.43896000000 2528.47607000000 2525.05493000000 2521.98291000000 2518.62891000000 2515.08789000000 2511.53711000000 2507.30005000000 2503.38794000000 2498.78101000000 2493.33105000000 2488.41504000000 2484.54199000000 2480.85596000000 2479.11499000000 2474.85205000000 2471.94897000000 2471.38306000000 2467.24609000000 2459.69702000000 2452.68188000000 2447.33008000000 2443.36011000000 2439.82910000000 2435.23901000000 2430.45288000000 2424.79395000000 2415.05005000000 2406.82104000000 2397.34790000000 2387.03003000000 2377.05493000000 2367.73193000000 2358.89111000000 2351.61304000000 2344.99707000000 2338.18408000000 2331.62012000000 2325.13696000000 2317.26099000000 2310.73096000000 2305.93994000000 2302.49194000000 2299.65210000000 2294.81494000000 2289.69092000000 2284.66797000000 2278.92603000000 2272.30591000000 2264.22607000000 2256.37109000000 2247.31299000000 2238.07593000000 2227.99390000000 2219.02197000000 2210.19189000000 2201.26611000000 2193.31689000000 2186.92407000000 2182.66992000000 2179.08398000000 2174.95410000000 2170.64111000000 2165.71802000000 2161.73999000000 2157.61499000000 2151.46094000000 2146.24194000000 2142.41992000000 2139.85010000000 2137.57910000000 2135.29395000000 2133.70801000000 2133.28101000000 2133.99707000000 2136.04004000000 2138.66504000000 2141.64600000000 2146.85889000000 2151.59399000000 2157.55103000000 2164.01709000000
2980.17310000000 2976.14502000000 2971.23511000000 2963.67407000000 2955.20410000000 2947.64600000000 2941.44189000000 2935.05811000000 2928.56494000000 2922.29712000000 2914.73706000000 2906.37012000000 2897.80103000000 2889.01196000000 2880.04102000000 2871.36499000000 2863.49097000000 2855.47803000000 2847.42700000000 2840.61694000000 2834.44702000000 2828.30493000000 2822.54004000000 2817.21289000000 2810.33398000000 2803.44312000000 2796.26001000000 2790.28589000000 2782.89209000000 2774.49292000000 2766.40503000000 2759.76709000000 2754.53491000000 2750.45605000000 2745.85010000000 2740.38696000000 2734.82690000000 2729.72900000000 2723.92310000000 2718.10400000000 2713.64697000000 2710.94189000000 2707.46606000000 2703.35889000000 2700.25195000000 2697.34692000000 2694.43799000000 2690.80005000000 2687.26001000000 2683.75610000000 2680.65796000000 2675.28809000000 2670.83789000000 2666.37305000000 2662.63501000000 2658.61011000000 2653.97900000000 2649.60107000000 2645.46094000000 2640.82910000000 2637.86694000000 2636.44800000000 2634.15894000000 2630.70996000000 2626.60010000000 2623.06494000000 2618.32690000000 2613.43604000000 2609.35791000000 2605.33911000000 2602.26709000000 2599.98389000000 2596.71094000000 2592.77588000000 2589.07593000000 2585.67993000000 2581.57397000000 2576.82104000000 2573.53003000000 2570.99902000000 2569.15796000000 2566.04102000000 2563.01001000000 2559.29199000000 2555.90796000000 2554.79297000000 2553.57690000000 2551.68994000000 2549.33911000000 2546.19409000000 2541.96704000000 2538.19897000000 2535.36694000000 2531.06909000000 2527.14404000000 2523.07593000000 2519.77808000000 2516.18604000000 2512.87695000000 2508.79712000000 2504.05493000000 2499.12793000000 2495.12891000000 2491.04492000000 2487.77002000000 2482.69409000000 2478.31812000000 2475.34692000000 2472.09302000000 2468.89111000000 2465.44897000000 2463.50488000000 2459.24609000000 2452.29004000000 2447.04102000000 2440.68311000000 2434.54810000000 2426.98608000000 2419.44312000000 2416.37012000000 2408.39795000000 2399.92090000000 2390.62988000000 2381.09106000000 2371.38501000000 2361.93701000000 2352.88599000000 2344.81396000000 2337.66602000000 2331.59912000000 2325.80811000000 2319.55396000000 2312.64404000000 2306.47998000000 2301.62695000000 2297.42896000000 2293.08008000000 2288.49512000000 2283.84790000000 2279.80908000000 2276.69189000000 2272.07593000000 2265.27905000000 2255.88501000000 2245.62305000000 2235.65894000000 2225.93604000000 2216.62793000000 2207.59497000000 2199.01392000000 2189.95190000000 2182.60303000000 2177.39893000000 2174.26392000000 2171.13599000000 2166.82300000000 2161.89209000000 2157.21899000000 2152.63892000000 2146.88306000000 2141.54297000000 2137.53809000000 2134.84692000000 2133.00610000000 2130.45801000000 2128.14307000000 2127.38110000000 2127.94507000000 2129.52808000000 2132.07104000000 2135.06104000000 2139.78101000000 2145.43604000000 2151.60303000000 2157.81396000000
2983.41992000000 2978.40698000000 2972.85596000000 2965.08105000000 2957.09399000000 2948.67505000000 2940.98608000000 2935.32788000000 2929.97290000000 2922.32007000000 2913.91504000000 2905.35205000000 2897.78491000000 2890.12500000000 2881.92310000000 2873.95703000000 2865.99609000000 2857.38892000000 2849.55811000000 2843.85693000000 2838.39502000000 2832.55103000000 2825.76294000000 2819.48193000000 2812.75708000000 2806.12988000000 2799.85791000000 2792.66602000000 2784.61597000000 2776.41992000000 2769.06006000000 2762.66699000000 2756.93311000000 2751.89990000000 2746.68091000000 2741.37109000000 2735.10107000000 2729.10791000000 2723.60791000000 2718.17090000000 2713.64990000000 2710.12988000000 2706.01611000000 2701.81396000000 2698.78491000000 2695.78101000000 2692.89307000000 2689.81909000000 2685.55103000000 2681.60107000000 2679.01807000000 2675.28589000000 2670.96289000000 2666.46094000000 2662.08105000000 2657.20410000000 2653.70605000000 2650.66406000000 2647.12500000000 2642.85303000000 2639.38403000000 2637.09009000000 2634.22412000000 2630.37109000000 2625.58691000000 2621.73706000000 2617.30811000000 2613.35596000000 2609.41504000000 2605.03711000000 2601.53711000000 2599.29199000000 2596.71899000000 2592.13599000000 2587.69409000000 2583.28101000000 2579.74902000000 2576.19800000000 2572.09692000000 2569.70996000000 2567.79004000000 2564.89404000000 2561.46899000000 2557.20508000000 2553.48901000000 2551.25391000000 2549.91504000000 2548.64697000000 2546.84106000000 2543.83105000000 2539.52002000000 2536.75391000000 2533.81201000000 2530.18188000000 2527.01001000000 2521.97803000000 2517.21289000000 2513.21802000000 2509.55103000000 2505.84912000000 2501.96802000000 2497.51611000000 2492.87891000000 2487.37891000000 2483.11108000000 2479.28296000000 2475.06104000000 2471.10596000000 2467.31104000000 2464.96802000000 2462.82788000000 2459.25903000000 2456.32495000000 2452.09790000000 2445.37695000000 2436.30591000000 2427.37109000000 2418.15698000000 2410.17310000000 2403.94897000000 2397.89209000000 2391.62109000000 2383.76709000000 2374.12109000000 2364.45605000000 2355.88110000000 2347.18701000000 2338.64111000000 2331.03394000000 2324.61011000000 2319.16309000000 2313.11597000000 2306.98706000000 2301.07593000000 2297.69507000000 2293.72192000000 2288.37500000000 2282.46191000000 2276.69800000000 2271.88306000000 2268.80493000000 2267.13208000000 2262.00610000000 2254.03906000000 2245.81494000000 2235.25708000000 2225.25806000000 2215.13306000000 2205.03003000000 2196.11108000000 2187.08301000000 2179.05200000000 2172.65796000000 2168.84009000000 2165.62598000000 2161.25488000000 2157.29590000000 2153.37305000000 2148.30005000000 2142.93604000000 2137.66211000000 2133.62988000000 2131.17212000000 2129.03296000000 2126.59912000000 2123.87305000000 2122.05908000000 2122.25488000000 2123.66504000000 2125.74609000000 2128.98706000000 2133.66797000000 2140.21289000000 2147.50610000000 2153.44702000000
2984.47705000000 2978.24097000000 2972.82397000000 2965.39307000000 2957.44604000000 2949.62305000000 2942.38696000000 2936.03589000000 2929.88306000000 2922.44507000000 2914.64990000000 2907.14600000000 2898.99292000000 2889.81592000000 2881.15698000000 2873.37988000000 2865.64600000000 2858.81104000000 2853.81812000000 2848.79199000000 2841.53809000000 2833.69604000000 2826.06104000000 2818.57910000000 2811.72510000000 2805.19092000000 2799.42310000000 2792.14893000000 2785.03589000000 2776.71094000000 2770.12695000000 2764.52588000000 2759.21094000000 2752.87988000000 2746.92407000000 2741.10010000000 2734.43896000000 2728.39990000000 2723.03711000000 2719.12598000000 2714.49609000000 2709.67310000000 2705.58594000000 2701.15308000000 2697.20703000000 2693.11792000000 2689.00610000000 2685.84399000000 2682.73999000000 2679.50000000000 2676.43408000000 2673.79712000000 2670.27490000000 2666.09399000000 2661.33105000000 2657.85205000000 2654.73999000000 2651.15894000000 2647.43604000000 2644.26294000000 2641.31909000000 2638.15308000000 2633.94897000000 2629.93604000000 2625.39893000000 2621.01904000000 2617.43799000000 2613.82397000000 2609.20410000000 2604.75903000000 2600.55688000000 2597.35693000000 2593.95996000000 2590.09692000000 2585.84106000000 2581.56689000000 2577.24902000000 2574.32593000000 2571.68896000000 2569.18506000000 2566.81104000000 2564.07690000000 2560.09399000000 2555.70093000000 2552.01611000000 2549.12500000000 2546.54004000000 2544.61499000000 2542.49292000000 2539.64209000000 2536.11011000000 2533.68799000000 2531.29199000000 2528.88501000000 2525.46899000000 2520.59595000000 2515.79712000000 2511.02295000000 2506.42993000000 2502.37012000000 2498.96899000000 2495.49609000000 2490.50098000000 2483.90894000000 2478.23511000000 2473.18188000000 2469.54102000000 2466.74292000000 2463.44409000000 2460.25610000000 2457.81689000000 2456.31812000000 2452.57910000000 2447.72803000000 2442.57397000000 2434.00806000000 2423.90991000000 2413.88989000000 2405.11890000000 2396.27710000000 2388.57007000000 2381.59692000000 2374.76709000000 2366.54492000000 2357.12305000000 2348.83911000000 2340.28589000000 2331.98096000000 2324.26904000000 2317.46899000000 2311.69507000000 2306.41406000000 2300.92407000000 2295.29590000000 2290.86890000000 2286.43994000000 2281.38989000000 2276.08301000000 2270.88794000000 2265.70703000000 2261.95288000000 2259.60107000000 2255.74902000000 2250.05200000000 2244.28711000000 2235.67993000000 2225.10791000000 2214.73193000000 2204.96509000000 2195.64795000000 2186.39990000000 2177.13989000000 2169.18604000000 2164.33594000000 2159.93506000000 2155.20898000000 2151.51611000000 2148.85400000000 2144.26807000000 2140.00610000000 2135.71411000000 2131.59009000000 2128.19897000000 2125.98389000000 2123.26196000000 2120.54810000000 2119.03491000000 2118.05591000000 2118.20996000000 2119.83301000000 2123.11792000000 2128.10596000000 2133.79810000000 2141.94604000000 2150.15503000000
2985.59009000000 2979.37988000000 2973.32593000000 2966.19800000000 2958.74707000000 2951.48804000000 2945.47095000000 2939.36499000000 2931.26709000000 2923.57202000000 2915.05396000000 2907.69189000000 2899.12207000000 2890.66699000000 2883.66211000000 2876.20898000000 2870.29492000000 2864.30688000000 2859.62012000000 2852.35498000000 2844.54102000000 2836.72803000000 2828.33008000000 2820.46411000000 2813.55396000000 2807.52588000000 2801.94189000000 2793.85889000000 2785.16992000000 2777.09106000000 2770.15894000000 2763.76099000000 2759.45996000000 2753.53491000000 2747.16211000000 2740.83301000000 2734.68188000000 2728.55396000000 2723.65503000000 2719.52588000000 2715.37305000000 2710.82690000000 2706.14795000000 2700.84692000000 2696.93701000000 2693.30591000000 2688.45508000000 2684.26709000000 2681.77295000000 2679.33594000000 2676.72095000000 2674.21802000000 2669.98511000000 2665.41602000000 2661.46899000000 2658.18799000000 2655.38110000000 2651.90088000000 2647.39502000000 2642.94189000000 2639.73291000000 2636.47412000000 2632.58594000000 2628.83691000000 2624.52100000000 2620.46509000000 2617.24707000000 2613.71191000000 2609.43408000000 2605.14307000000 2600.84912000000 2597.01904000000 2593.45996000000 2589.07104000000 2584.52490000000 2579.79810000000 2576.00806000000 2572.28394000000 2569.30493000000 2567.18701000000 2565.18188000000 2562.13501000000 2558.72998000000 2554.84204000000 2550.92505000000 2547.68994000000 2544.62598000000 2541.00391000000 2538.13892000000 2535.81299000000 2533.31592000000 2530.54004000000 2527.66602000000 2524.76904000000 2522.04810000000 2518.15210000000 2513.92603000000 2509.07690000000 2504.09302000000 2499.69897000000 2495.68311000000 2491.81812000000 2486.64990000000 2480.48608000000 2474.60400000000 2468.84204000000 2464.39209000000 2461.63794000000 2459.33789000000 2456.33203000000 2452.86890000000 2449.77393000000 2447.24902000000 2442.99902000000 2438.43188000000 2431.75098000000 2421.98096000000 2411.07300000000 2401.50903000000 2391.81592000000 2383.03198000000 2374.82202000000 2366.72705000000 2358.36890000000 2349.83203000000 2341.87402000000 2333.99902000000 2326.03809000000 2318.24194000000 2311.03589000000 2304.27588000000 2298.35205000000 2293.32593000000 2287.86304000000 2282.30298000000 2277.41309000000 2272.90088000000 2267.31104000000 2262.67212000000 2258.81812000000 2255.07007000000 2252.21289000000 2248.72095000000 2243.47607000000 2239.07788000000 2234.38989000000 2226.08301000000 2216.29199000000 2206.81006000000 2197.24805000000 2187.44800000000 2177.38306000000 2168.03491000000 2161.34497000000 2155.92505000000 2150.61694000000 2145.93408000000 2143.35498000000 2139.99194000000 2136.42798000000 2132.87012000000 2129.52100000000 2126.14502000000 2123.23706000000 2120.89404000000 2118.62305000000 2116.97192000000 2115.44604000000 2114.64697000000 2114.82397000000 2117.54810000000 2121.72412000000 2127.12500000000 2134.13892000000 2142
2983.90796000000 2978.42896000000 2973.51489000000 2966.52197000000 2959.39697000000 2952.44312000000 2947.04590000000 2939.54810000000 2932.23706000000 2924.91602000000 2916.01709000000 2908.51807000000 2900.08594000000 2892.75000000000 2885.80591000000 2879.77808000000 2874.34204000000 2869.18188000000 2863.03296000000 2855.81494000000 2848.46704000000 2840.79199000000 2832.86011000000 2825.39502000000 2817.95801000000 2810.73608000000 2804.38794000000 2795.98706000000 2786.97095000000 2778.81201000000 2772.18311000000 2765.94604000000 2759.42993000000 2753.33789000000 2747.68701000000 2743.54907000000 2737.94604000000 2732.00806000000 2726.53296000000 2720.56396000000 2715.77197000000 2712.04102000000 2708.50098000000 2704.35010000000 2699.72900000000 2695.08691000000 2690.33691000000 2686.58594000000 2684.20703000000 2682.00391000000 2678.45508000000 2674.36694000000 2669.31592000000 2664.33594000000 2660.04492000000 2656.64111000000 2653.57397000000 2650.89111000000 2646.97192000000 2643.86499000000 2640.52100000000 2637.60205000000 2634.70801000000 2631.14600000000 2626.79590000000 2621.66895000000 2616.52588000000 2612.40601000000 2608.88501000000 2604.69092000000 2601.24707000000 2597.12402000000 2593.58105000000 2589.15405000000 2584.13306000000 2578.94604000000 2574.11499000000 2570.16699000000 2567 2563.44995000000 2561.61401000000 2558.90088000000 2555.89111000000 2553.77588000000 2550.27588000000 2546.17212000000 2542.94800000000 2539.16089000000 2535.14795000000 2532.43604000000 2529.80688000000 2527.25903000000 2524.96704000000 2521.42090000000 2518.09302000000 2515.50293000000 2511.79297000000 2507.27002000000 2502.33691000000 2497.61890000000 2493.31812000000 2489.05688000000 2483.97900000000 2478.04102000000 2471.97510000000 2465.87305000000 2460.05200000000 2455.43091000000 2452.81689000000 2450.64795000000 2448.61401000000 2443.58008000000 2439.57910000000 2436.54297000000 2433.02295000000 2428.19800000000 2419.68994000000 2409.31299000000 2398.58301000000 2388.65405000000 2378.76709000000 2369.78198000000 2361.48706000000 2353.02393000000 2344.56006000000 2336.48901000000 2328.41699000000 2320.15405000000 2312.01294000000 2304.61304000000 2297.52588000000 2291.12109000000 2285.93311000000 2280.72095000000 2275.12207000000 2268.77490000000 2263.83911000000 2260.06006000000 2254.56201000000 2250.11792000000 2246.81299000000 2244.14990000000 2241.43701000000 2236.81006000000 2231.58594000000 2227.70093000000 2224.59009000000 2217.93311000000 2209.01001000000 2198.85889000000 2188.62109000000 2178.22192000000 2168.47290000000 2159.97998000000 2153.45605000000 2147.75903000000 2142.53809000000 2138.33301000000 2135.98804000000 2133.61108000000 2130.44507000000 2127.22412000000 2124.21704000000 2121.79199000000 2119.16602000000 2116.37500000000 2114.52588000000 2113.16211000000 2112.32202000000 2112.39502000000 2113.23193000000 2116.23291000000 2120.29102000000 2127.52197000000 2135.87207000000
2983.13989000000 2977.31396000000 2971.11597000000 2964.74902000000 2957.74097000000 2951.38892000000 2945.10303000000 2938.23096000000 2931.72900000000 2925.66406000000 2917.67505000000 2909.43311000000 2903.30103000000 2896.52490000000 2888.68799000000 2881.83105000000 2876.73999000000 2870.84399000000 2865.34912000000 2858.34912000000 2849.94897000000 2841.10889000000 2831.87891000000 2823.91504000000 2815.44507000000 2807.72803000000 2802.57202000000 2796.00293000000 2787.72803000000 2779.46411000000 2772.85107000000 2766.56494000000 2759.88794000000 2753.13501000000 2747.83008000000 2743.36499000000 2737.31201000000 2730.44604000000 2723.11304000000 2716.86792000000 2711.71094000000 2707.55200000000 2705.14893000000 2702.74194000000 2701.17798000000 2698.03394000000 2693.88208000000 2690.03589000000 2686.62402000000 2682.45996000000 2676.97705000000 2672.42505000000 2667.20605000000 2662.33594000000 2658.75098000000 2656.57495000000 2653.66211000000 2650.56689000000 2646.33691000000 2643.35205000000 2640.17407000000 2637.19409000000 2634.27808000000 2631.12109000000 2628.10791000000 2624.39307000000 2618.01489000000 2612.07788000000 2607.52588000000 2603.64209000000 2600.10205000000 2596.35889000000 2593.03101000000 2589.20288000000 2584.02002000000 2578.50610000000 2572.60498000000 2567.49805000000 2564.18896000000 2561.40601000000 2558.61499000000 2556.52710000000 2554.06909000000 2551.87988000000 2548.90308000000 2545.43701000000 2542.26807000000 2537.95190000000 2533.16211000000 2529.48608000000 2526.45898000000 2523.40894000000 2520.88989000000 2518.40796000000 2515.06689000000 2512.27002000000 2509.52100000000 2506.22192000000 2501.73608000000 2496.72290000000 2491.38599000000 2486.63110000000 2481.54199000000 2475.36499000000 2469.61206000000 2463.30591000000 2457.51807000000 2451.68896000000 2447.36890000000 2444.68799000000 2443.14502000000 2439.51392000000 2434.00488000000 2428.81104000000 2425.43701000000 2422.69312000000 2417.09497000000 2407.74512000000 2396.98706000000 2386.28491000000 2376.42407000000 2366.83911000000 2357.19995000000 2348.36792000000 2339.86499000000 2331.45410000000 2323.21509000000 2314.67407000000 2306.92603000000 2299.23804000000 2291.55908000000 2284.15088000000 2278.31592000000 2272.85791000000 2266.94092000000 2260.68091000000 2254.73804000000 2250.43408000000 2246.83691000000 2242.20410000000 2238.53589000000 2236.43701000000 2234.53198000000 2230.83398000000 2225.53711000000 2220.29907000000 2217.35010000000 2214.57593000000 2208.56396000000 2199.64209000000 2189.50488000000 2179.56299000000 2169.64990000000 2160.72412000000 2151.66992000000 2144.99390000000 2139.93091000000 2135.25903000000 2131.55200000000 2129.48804000000 2127.85010000000 2125.26392000000 2123.10107000000 2121.05493000000 2118.43311000000 2115.59204000000 2113.05688000000 2111.60791000000 2110.25195000000 2110.31104000000 2110.81201000000 2112.02002000000 2115.12695000000 2120.40894000000 2130.75000000000
2982.72900000000 2977.45898000000 2969.06592000000 2963.20288000000 2958.43188000000 2950.69995000000 2943.27905000000 2936.65308000000 2930.28394000000 2923.94409000000 2917.61108000000 2910.12598000000 2903.53809000000 2897.64307000000 2890.50708000000 2884.36304000000 2877.63403000000 2871.35107000000 2864.81592000000 2857.00610000000 2849.10889000000 2840.31299000000 2831.34692000000 2822.55688000000 2813.78906000000 2806.26099000000 2799.81592000000 2793.79102000000 2786.22192000000 2778.65796000000 2769.90601000000 2763.43701000000 2758.56812000000 2752.09204000000 2745.43994000000 2739.51709000000 2733.16211000000 2726.45605000000 2719.14795000000 2712.55200000000 2708.29712000000 2704.67505000000 2701.35791000000 2699.37500000000 2697.07007000000 2695.32397000000 2693.20288000000 2690.49609000000 2687.94702000000 2682.18799000000 2675.44995000000 2670.54395000000 2667.03711000000 2664.29712000000 2662.34595000000 2659.81592000000 2655.19702000000 2651.48193000000 2646.93506000000 2643.06592000000 2640.11597000000 2636.57910000000 2633.57495000000 2630.27197000000 2626.52002000000 2622.91504000000 2618.97803000000 2615.22095000000 2609.95605000000 2604.18188000000 2599.40503000000 2595.27588000000 2592.00708000000 2588.35303000000 2583.09009000000 2577.96899000000 2571.97705000000 2566.35205000000 2562.06909000000 2560.12207000000 2556.95093000000 2554.64697000000 2552.88794000000 2549.94897000000 2547.39697000000 2544.68506000000 2541.71802000000 2536.50806000000 2531.31299000000 2527.00195000000 2523.72412000000 2520.53101000000 2517.21704000000 2514.34204000000 2511.81592000000 2509.10303000000 2507.36890000000 2505.03296000000 2500.52100000000 2495.34790000000 2490.61597000000 2485.11792000000 2479.55811000000 2473.92505000000 2468.57300000000 2462.07910000000 2456.00293000000 2449.83691000000 2443.58008000000 2439.18896000000 2436.68188000000 2433.68311000000 2428.57104000000 2422.04492000000 2416.61499000000 2414.24902000000 2411.64795000000 2404.98706000000 2394.96802000000 2383.76904000000 2374.08008000000 2363.87793000000 2353.93896000000 2344.10596000000 2335.10010000000 2326.43701000000 2318.07300000000 2309.77588000000 2302.12988000000 2294.30200000000 2286.05005000000 2278.17310000000 2270.77905000000 2264.92798000000 2258.91504000000 2252.49902000000 2245.82202000000 2240.57202000000 2237.11499000000 2234.17700000000 2231.05811000000 2228.82495000000 2226.97900000000 2223.74292000000 2218.50488000000 2212.87109000000 2208.97900000000 2207.24902000000 2204.39404000000 2198.87109000000 2190.38892000000 2180.52905000000 2170.37988000000 2160.60205000000 2151.12500000000 2143.35400000000 2137.33105000000 2133.79492000000 2130.31494000000 2126.38794000000 2123.79492000000 2122.52295000000 2120.89990000000 2119.59497000000 2117.82788000000 2115.96899000000 2113.82788000000 2111.92993000000 2109.92993000000 2108.60791000000 2108.89209000000 2109.87109000000 2111.26196000000 2114.49805000000 2121.58496000000
2983.52490000000 2976.76392000000 2969.79907000000 2963.14307000000 2957.02808000000 2949.70996000000 2940.97095000000 2934.30396000000 2928.38696000000 2921.55396000000 2914.94507000000 2907.29004000000 2899.56006000000 2893.27588000000 2887.84302000000 2883.27100000000 2877.36597000000 2871.64404000000 2863.80396000000 2856.79199000000 2849.32300000000 2841.41699000000 2832.38989000000 2823.47998000000 2814.44092000000 2805.66406000000 2797.30688000000 2790.04810000000 2783.62012000000 2777.23096000000 2769.62988000000 2763.43311000000 2758.97510000000 2753.11499000000 2745.97412000000 2738.43408000000 2731.11304000000 2724.57300000000 2717.75195000000 2712.29004000000 2707.96606000000 2704.03491000000 2700.91699000000 2698.14990000000 2694.68896000000 2691.10205000000 2688.37109000000 2687.41089000000 2685.85693000000 2682.49609000000 2677.72607000000 2673.48608000000 2670.26904000000 2668.26294000000 2665.77588000000 2662.85205000000 2657.73511000000 2651.23901000000 2646.14209000000 2641.87109000000 2638.58789000000 2635.33008000000 2631.85596000000 2628.35889000000 2625.27710000000 2622.20703000000 2618.37109000000 2614.36694000000 2610.48291000000 2605.75610000000 2600.08398000000 2595.69800000000 2591.96094000000 2587.63696000000 2581.77002000000 2576.82495000000 2571.61011000000 2566.51196000000 2561.43701000000 2558.48901000000 2555.97095000000 2553.48804000000 2551.79004000000 2549.17212000000 2546.42798000000 2543.76489000000 2540.44995000000 2535.78809000000 2531.02490000000 2527.03003000000 2523.16089000000 2519.83911000000 2516.23389000000 2512.63599000000 2509.19800000000 2506.30811000000 2504.38403000000 2502.19800000000 2497.54297000000 2492.64209000000 2488.31689000000 2483.55200000000 2478.74292000000 2473.31592000000 2467.49194000000 2461.24292000000 2454.84497000000 2448.36011000000 2441.59790000000 2435.03809000000 2430.58105000000 2427.96191000000 2422.63208000000 2415.22095000000 2408.83105000000 2404.47510000000 2403.25293000000 2399.92505000000 2391.21802000000 2380.53003000000 2370.49609000000 2360.48804000000 2350.58911000000 2340.50903000000 2330.99609000000 2321.89893000000 2313.30200000000 2305.18408000000 2297.03101000000 2288.98193000000 2281.07300000000 2272.92505000000 2265.26099000000 2258.38501000000 2252.06299000000 2245.46606000000 2238.78589000000 2232.34302000000 2227.51807000000 2224.14990000000 2222.10303000000 2220.78394000000 2218.72412000000 2215.15308000000 2210.53101000000 2205.39893000000 2200.25098000000 2197.55688000000 2195.91406000000 2193.41797000000 2188.76392000000 2180.18311000000 2170.68311000000 2160.44702000000 2150.62500000000 2142.01294000000 2134.84302000000 2130.63599000000 2128.24707000000 2124.79810000000 2121.16602000000 2119.87695000000 2119.45410000000 2118.15796000000 2117.28711000000 2115.99097000000 2114.28394000000 2112.58105000000 2111.09912000000 2109.48511000000 2109.05811000000 2109.05811000000 2109.50708000000 2109.88306000000 2115.10791000000
2982.10498000000 2975.39697000000 2968.52100000000 2961.08911000000 2954.24292000000 2947.32397000000 2940.80200000000 2933.05908000000 2925.83203000000 2919.26807000000 2912.50903000000 2905.81592000000 2898.48999000000 2890.54199000000 2884.09106000000 2878.39697000000 2873.55688000000 2868.29297000000 2862.53491000000 2857.84009000000 2850.12988000000 2841.77100000000 2832.07593000000 2823.10205000000 2815.73389000000 2807.92212000000 2799.11499000000 2791.42505000000 2784.71289000000 2778.45898000000 2771.56006000000 2764.31104000000 2758.27710000000 2752.93896000000 2746.66406000000 2739.49902000000 2732.08496000000 2726.07910000000 2719.69409000000 2713.83203000000 2709.24194000000 2704.61304000000 2700.55298000000 2697.62598000000 2694.15698000000 2689.95801000000 2685.61206000000 2681.81396000000 2679.90503000000 2679.20703000000 2676.62793000000 2673.73193000000 2671.62109000000 2667.72998000000 2664.33398000000 2661.07007000000 2657.63892000000 2652.61206000000 2647.73096000000 2642.06299000000 2637.43188000000 2634.10205000000 2631.62305000000 2628.73901000000 2624.55103000000 2620.20605000000 2616.26489000000 2612.43799000000 2607.87988000000 2604.95190000000 2601.92407000000 2596.84204000000 2591.73193000000 2587.16211000000 2581.75195000000 2576.10303000000 2571.21411000000 2566.58301000000 2561.57910000000 2557.95508000000 2554.71411000000 2552.46289000000 2550.47705000000 2547.92090000000 2545.25293000000 2542.38501000000 2538.77905000000 2534.67896000000 2531.24292000000 2527.32202000000 2523.36694000000 2519.30005000000 2515.71289000000 2511.80005000000 2507.29810000000 2504.22290000000 2501.57910000000 2498.85693000000 2494.85205000000 2489.93799000000 2485.68701000000 2481.90796000000 2477.64307000000 2473.40796000000 2466.96094000000 2459.96411000000 2452.90698000000 2446.36792000000 2439.29590000000 2432.27295000000 2426.08301000000 2421.07593000000 2415.65991000000 2409.10791000000 2401.94995000000 2396.45093000000 2393.65894000000 2392.59399000000 2387.56812000000 2376.95508000000 2367.38501000000 2358.19409000000 2348.04492000000 2338.11401000000 2327.90601000000 2318.24902000000 2309.29590000000 2300.71411000000 2292.34790000000 2284.43091000000 2276.40991000000 2268.24805000000 2260.37891000000 2253.06006000000 2246.28711000000 2239.56104000000 2232.68311000000 2226.18408000000 2220.17407000000 2215.88892000000 2212.40210000000 2210.76904000000 2209.93408000000 2206.74512000000 2202.54907000000 2197.86401000000 2192.42310000000 2188.59106000000 2186.37207000000 2185.02197000000 2183.53101000000 2178.52905000000 2170.24805000000 2160.68799000000 2150.17798000000 2140.98999000000 2133.33301000000 2127.81006000000 2124.55103000000 2121.54004000000 2118.29004000000 2117.61499000000 2117.39893000000 2116.79395000000 2116.49292000000 2115.34302000000 2114.08496000000 2112.97290000000 2111.67407000000 2110.27197000000 2109.64404000000 2109.06689000000 2108.72192000000 2108.02710000000 2109.38403000000
2978.87500000000 2971.95605000000 2965.23291000000 2958.35498000000 2951.68604000000 2943.70703000000 2937.92603000000 2931.92505000000 2924.60303000000 2917.21289000000 2910.50391000000 2904.81812000000 2898.75488000000 2890.97192000000 2883.19897000000 2876.27100000000 2869.59106000000 2863.78906000000 2858.11206000000 2853.88794000000 2848.31494000000 2841.61304000000 2829.72095000000 2820.63208000000 2814.81909000000 2807.51001000000 2800.03101000000 2792.46997000000 2786.21411000000 2778.87207000000 2771.69092000000 2765.16309000000 2758.76904000000 2752.84399000000 2746.82910000000 2739.99512000000 2733.93188000000 2727.09009000000 2719.44897000000 2712.94189000000 2708.20508000000 2704.23706000000 2700.26611000000 2696.81396000000 2692.56396000000 2688.12598000000 2683.87695000000 2679.28198000000 2676.17310000000 2674.54199000000 2672.57690000000 2670.18311000000 2666.75488000000 2661.86108000000 2658.49097000000 2655.27710000000 2653.12793000000 2650.74390000000 2647.77197000000 2643.43799000000 2639.47803000000 2634.92603000000 2630.70508000000 2627.59106000000 2622.87598000000 2617.84692000000 2613.65991000000 2609.40503000000 2605.94800000000 2602.76001000000 2599.44189000000 2596.01001000000 2591.81201000000 2586.46509000000 2581.13892000000 2576.06689000000 2571.86304000000 2566.79297000000 2562.06592000000 2558.80200000000 2556.02295000000 2553.63599000000 2550.88110000000 2548.27808000000 2545.43701000000 2541.94604000000 2537.87988000000 2533.93408000000 2531.04004000000 2527.18799000000 2522.35693000000 2517.53198000000 2513.29907000000 2509.12793000000 2505.30493000000 2502.54810000000 2500.09302000000 2496.08105000000 2492.33203000000 2488.31299000000 2483.37207000000 2479.56299000000 2476.21509000000 2471.70508000000 2467.02588000000 2460.41602000000 2452.52002000000 2444.30908000000 2436.39990000000 2429.45605000000 2423.00488000000 2416.65210000000 2410.61792000000 2404.14404000000 2396.82397000000 2390.42700000000 2386.21997000000 2383.32593000000 2381.02002000000 2372.97998000000 2363.57788000000 2355.39990000000 2346.77808000000 2336.97412000000 2326.29492000000 2316.01709000000 2306.20093000000 2296.70190000000 2288.12598000000 2279.87500000000 2271.55005000000 2263.73901000000 2255.74707000000 2248.01709000000 2240.75708000000 2234.09692000000 2227.13110000000 2220.35791000000 2214.50098000000 2209.29492000000 2204.64502000000 2201.49390000000 2200.23389000000 2198.17603000000 2194.53101000000 2190.54395000000 2185.27002000000 2180.32104000000 2177.47192000000 2176.34595000000 2175.68799000000 2174.18091000000 2169.02002000000 2160.74707000000 2150.24902000000 2140.65991000000 2132.34106000000 2125.72803000000 2121.31494000000 2118.06396000000 2115.47998000000 2115.33911000000 2115.60596000000 2114.63989000000 2114 2113.21802000000 2112.58789000000 2111.70801000000 2111 2110.53711000000 2109.88306000000 2109.22803000000 2107.81689000000 2106.95996000000 2106.54297000000
2978.06299000000 2970.77588000000 2962.49194000000 2955.11401000000 2949.30591000000 2943.47412000000 2936.77100000000 2930.11792000000 2923.76392000000 2916.71997000000 2910.72705000000 2904.09399000000 2896.96802000000 2890.20898000000 2882.87305000000 2875.82104000000 2868.75000000000 2860.58691000000 2852.84912000000 2846.70410000000 2842.54590000000 2837.65503000000 2829.80200000000 2821.45605000000 2814.01196000000 2807.10791000000 2799.70190000000 2792.30908000000 2785.10498000000 2778.02100000000 2771.24609000000 2764.22290000000 2757.53491000000 2751.51807000000 2745.89697000000 2740.04492000000 2732.82397000000 2725.67993000000 2719.44507000000 2712.94409000000 2707.84009000000 2703.03296000000 2698.59302000000 2694.40308000000 2689.48511000000 2685.96606000000 2682.48511000000 2678.99194000000 2675.98901000000 2673.44189000000 2670.71191000000 2667.41992000000 2663.15991000000 2658.42896000000 2655.13989000000 2652.22192000000 2649.17310000000 2645.85205000000 2643.55493000000 2640.62598000000 2638.01807000000 2635.15894000000 2630.86890000000 2625.09106000000 2619.76904000000 2615.34790000000 2611.34009000000 2607.84790000000 2603.56909000000 2600.01709000000 2596.80005000000 2593.80908000000 2591.56689000000 2586.82788000000 2580.33398000000 2575.77295000000 2571.35205000000 2566.66992000000 2563.66992000000 2561.37402000000 2558.72900000000 2555.14404000000 2551.50293000000 2547.98706000000 2543.88208000000 2539.78809000000 2535.30493000000 2531.37207000000 2527.92896000000 2524.42212000000 2520.50610000000 2516.68506000000 2512.28589000000 2507.35303000000 2502.56104000000 2499.49390000000 2496.98901000000 2493.23291000000 2489.33691000000 2485.93091000000 2481.92896000000 2477.30908000000 2473.10693000000 2469.53296000000 2465.08691000000 2459.37402000000 2452.68994000000 2443.69092000000 2434.79004000000 2427.17212000000 2419.85693000000 2412.82300000000 2406.38892000000 2400.11401000000 2393.60693000000 2386.63208000000 2379.34302000000 2375.70801000000 2372.88599000000 2367.30811000000 2358.81104000000 2351.02588000000 2343.44507000000 2334.54395000000 2324.71411000000 2314.52588000000 2304.19507000000 2294.39697000000 2285.05005000000 2275.58594000000 2267.15503000000 2258.93994000000 2251.06592000000 2243.44092000000 2235.93994000000 2228.69702000000 2221.56299000000 2215.10400000000 2208.43994000000 2202.63110000000 2197.46411000000 2193.39209000000 2190.77002000000 2189.67700000000 2187.28296000000 2182.72412000000 2178.44702000000 2173.47192000000 2169.51807000000 2167.42993000000 2166.70093000000 2166.51294000000 2163.26196000000 2158.06396000000 2150.12109000000 2141.08398000000 2132.04102000000 2124.67505000000 2119.39111000000 2115.18091000000 2112.71411000000 2112.39600000000 2112.62500000000 2111.85107000000 2111.45801000000 2110.64893000000 2109.83301000000 2108.88403000000 2109.01001000000 2108.69507000000 2108.79492000000 2108.70093000000 2107.50000000000 2105.81812000000 2104.42798000000
2978.36304000000 2971.36108000000 2963.77808000000 2956.20898000000 2949.21411000000 2943.68311000000 2936.89600000000 2929.41309000000 2922.05493000000 2915.26489000000 2909.87891000000 2904.63599000000 2896.54102000000 2888.33008000000 2880.68091000000 2873.38208000000 2866.22290000000 2858.66992000000 2851.28906000000 2843.96997000000 2837.71509000000 2831.94092000000 2825.62207000000 2818.60303000000 2810.64697000000 2803.62695000000 2797.23804000000 2790.33105000000 2783.27197000000 2776.74707000000 2770.19800000000 2764.08594000000 2758.57397000000 2752.04810000000 2745.71289000000 2738.64795000000 2731.76294000000 2724.73389000000 2718.53296000000 2713.12598000000 2709.08594000000 2704.14893000000 2698.30005000000 2692.96997000000 2687.62891000000 2683.59595000000 2681.01904000000 2677.79810000000 2675.30688000000 2673.12207000000 2670.65894000000 2667.73999000000 2663.77295000000 2659.14990000000 2654.85107000000 2650.54810000000 2647.53809000000 2645.64893000000 2641.37207000000 2636.54199000000 2632.63306000000 2630.90088000000 2628.99097000000 2624.15698000000 2619.06396000000 2613.96094000000 2609.18506000000 2605.99194000000 2602.66211000000 2598.41309000000 2595.01904000000 2591.90601000000 2589.27808000000 2586.58203000000 2580.89307000000 2575.77100000000 2572.02905000000 2568.91089000000 2566.73706000000 2563.90503000000 2560.23389000000 2556.34106000000 2552.18799000000 2547.18799000000 2541.71094000000 2537.01489000000 2533.26392000000 2530.14307000000 2526.59497000000 2522.22803000000 2518.27100000000 2513.95288000000 2509.51392000000 2504.91699000000 2500.52905000000 2495.99902000000 2492.82300000000 2489.91797000000 2486.45508000000 2482.82202000000 2479.31689000000 2475.61890000000 2470.78101000000 2465.95703000000 2460.96191000000 2455.99805000000 2450.41504000000 2443.41406000000 2434.25000000000 2425.56494000000 2417.40405000000 2409.84204000000 2402.59790000000 2395.86206000000 2389.58105000000 2382.67603000000 2374.64697000000 2368.77100000000 2364.52710000000 2359.87012000000 2353.15503000000 2345.19897000000 2337.26709000000 2329.50610000000 2321.24512000000 2312.79907000000 2303.05005000000 2292.73901000000 2282.73999000000 2272.96802000000 2263.34692000000 2254.71606000000 2246.68311000000 2238.82788000000 2230.90503000000 2223.30298000000 2216.47998000000 2209.58789000000 2202.74609000000 2196.07788000000 2190.36792000000 2186.02905000000 2182.30298000000 2180.47095000000 2178.91504000000 2176.01611000000 2171.46509000000 2166.77100000000 2162.48389000000 2159.42505000000 2157.75195000000 2156.76099000000 2155.42212000000 2152.81812000000 2147.98608000000 2140.95605000000 2131.98999000000 2124.05103000000 2117.49194000000 2112.87207000000 2110.14404000000 2109.48804000000 2109.48901000000 2109.13794000000 2108.19897000000 2107.82910000000 2107.04712000000 2106.66602000000 2106.94092000000 2106.51392000000 2105.68994000000 2106.12402000000 2105.73511000000 2103.54492000000 2101.97803000000
2979.11304000000 2971.75195000000 2963.87793000000 2956.50806000000 2949.48901000000 2943.93896000000 2938.23999000000 2929.84106000000 2922.09497000000 2914.79297000000 2909.08301000000 2903.44897000000 2896.38599000000 2888.78809000000 2881.54907000000 2875.09399000000 2866.92407000000 2858.73389000000 2851.29102000000 2843.32690000000 2835.63892000000 2828.61108000000 2821.54199000000 2814.56494000000 2807.81909000000 2801.42407000000 2794.81909000000 2788.96191000000 2781.95410000000 2775.20410000000 2768.67212000000 2762.91895000000 2758.90991000000 2753.67310000000 2747.95190000000 2741.20288000000 2733.52002000000 2726.14307000000 2718.74390000000 2712.42993000000 2708.68896000000 2704.86499000000 2700.39307000000 2694.48096000000 2688.89697000000 2683.64209000000 2680.09497000000 2676.90698000000 2673.99390000000 2671.65894000000 2668.60205000000 2666.23999000000 2662.58496000000 2658.88794000000 2655.08789000000 2651.64209000000 2647.46411000000 2643.95190000000 2640.55103000000 2635.58789000000 2629.66895000000 2626.62500000000 2625.37402000000 2623.17993000000 2619.83691000000 2614.21094000000 2609.01611000000 2606.79395000000 2604.32593000000 2600.68701000000 2597.64795000000 2595.18799000000 2591.78589000000 2588.07300000000 2583.70288000000 2579.63892000000 2576.05298000000 2572.64307000000 2568.64404000000 2564.16504000000 2560.68408000000 2557.20703000000 2552.27197000000 2546.90210000000 2540.89111000000 2537.03296000000 2533.70801000000 2529.11694000000 2525.26001000000 2521.23291000000 2516.54810000000 2511.47412000000 2506.86499000000 2502.47290000000 2498.40601000000 2493.81689000000 2489.04712000000 2485.45093000000 2483.17993000000 2479.63696000000 2475.37109000000 2472.14795000000 2469.00098000000 2463.46094000000 2457.39111000000 2451.76001000000 2446.67090000000 2440.81201000000 2434.19507000000 2424.78394000000 2415.34399000000 2407.30005000000 2399.71094000000 2392.20508000000 2384.63696000000 2377.74194000000 2370.37207000000 2362.96606000000 2356.84790000000 2352.20190000000 2345.80200000000 2338.94409000000 2330.97705000000 2322.86597000000 2315.56494000000 2308.06592000000 2299.91406000000 2290.38892000000 2280.88501000000 2271.21289000000 2261.16992000000 2251.54712000000 2242.77588000000 2234.36401000000 2225.99609000000 2218.49902000000 2211.41797000000 2204.22510000000 2197.16504000000 2190.27905000000 2183.73901000000 2178.67407000000 2174.32397000000 2171.52588000000 2169.85596000000 2168.66504000000 2165.52710000000 2160.80688000000 2156.43799000000 2152.51001000000 2149.62891000000 2148.41211000000 2147.06201000000 2145.61108000000 2143.29297000000 2138.15991000000 2131.37207000000 2123.69995000000 2116.61401000000 2110.31909000000 2107.70605000000 2106.36401000000 2106.27295000000 2105.89893000000 2104.84497000000 2105.04712000000 2104.61694000000 2104.38696000000 2105.12207000000 2104.79907000000 2103.30103000000 2102.88306000000 2102.64795000000 2101.87891000000 2100.62891000000
2978.69702000000 2971.64795000000 2965.62695000000 2959.93506000000 2952.32104000000 2945.36011000000 2938.12598000000 2930.53809000000 2922.84790000000 2915.78296000000 2908.26294000000 2902.76001000000 2896.84399000000 2889.94507000000 2883.24805000000 2874.79712000000 2866.17798000000 2858.80908000000 2851.82104000000 2843.95801000000 2836.37598000000 2828.83008000000 2821.96411000000 2814.93994000000 2807.77295000000 2800.73706000000 2793.40796000000 2787.04712000000 2779.82300000000 2773.64209000000 2767.02295000000 2761.93311000000 2757.10400000000 2751.72998000000 2746.08301000000 2739.72290000000 2733.51001000000 2727.45898000000 2720.71704000000 2713.74097000000 2708.71997000000 2704.21704000000 2699.91992000000 2695.17407000000 2690.96899000000 2686.62598000000 2681.53491000000 2676.19995000000 2671.05396000000 2667.63501000000 2664.53491000000 2662.69995000000 2659.83691000000 2656.46997000000 2653.34204000000 2650.00391000000 2645.93799000000 2641.93506000000 2638.71509000000 2635.33301000000 2630.28198000000 2624.55298000000 2621.41089000000 2621.03394000000 2619.43188000000 2615.68506000000 2611.44507000000 2608.61206000000 2605.38501000000 2601.76489000000 2598.80591000000 2596.14795000000 2593.09692000000 2589.18994000000 2585.32593000000 2580.59204000000 2576.17212000000 2572.30908000000 2568.08789000000 2564.47192000000 2561.65894000000 2558.78711000000 2554.47192000000 2549.14209000000 2542.80298000000 2538.34302000000 2534.21509000000 2528.62207000000 2523.70288000000 2519.83203000000 2515.15601000000 2510.25488000000 2505.12988000000 2500.72998000000 2496.71997000000 2492.43994000000 2488.04590000000 2483.79102000000 2480.08398000000 2476.66504000000 2472.67700000000 2469.37598000000 2466.01904000000 2461.38696000000 2455.85205000000 2448.75098000000 2442.08203000000 2436.97998000000 2431.62109000000 2424.11694000000 2415.01807000000 2406.00903000000 2397.91309000000 2390.08496000000 2381.98608000000 2373.79199000000 2365.82202000000 2357.79907000000 2350.41089000000 2344.85205000000 2339.40210000000 2332.45190000000 2325.92993000000 2317.93506000000 2309.72900000000 2302.62598000000 2295.05298000000 2286.69800000000 2278.18311000000 2269.44189000000 2259.37891000000 2249.19995000000 2239.57397000000 2230.67212000000 2221.97705000000 2214.09692000000 2206.40210000000 2199.20898000000 2191.80908000000 2184.86499000000 2178.21704000000 2172.28198000000 2167.04395000000 2163.53589000000 2160.96509000000 2159.63696000000 2158.60010000000 2155.68188000000 2151.84399000000 2147.60303000000 2143.08911000000 2140.27905000000 2138.52588000000 2137.63696000000 2137.16089000000 2133.79297000000 2129.75098000000 2123.02905000000 2116.85303000000 2109.89209000000 2106.53711000000 2104.93799000000 2103.72705000000 2102.67407000000 2102.33789000000 2102.68799000000 2102.18506000000 2102.42310000000 2103.16089000000 2102.15088000000 2101.30591000000 2100.43506000000 2099.83691000000 2100.04590000000 2099.16699000000
2978.19189000000 2972.61499000000 2966.67505000000 2960.85791000000 2955.04102000000 2947.87988000000 2939.70801000000 2932.25903000000 2925.42603000000 2917.95996000000 2910.36011000000 2903.81299000000 2897.44897000000 2890.96509000000 2883.70898000000 2875.73706000000 2867.24609000000 2859.30908000000 2851.80200000000 2844.26709000000 2837.11011000000 2829.86499000000 2823.01392000000 2815.91895000000 2808.32202000000 2800.74390000000 2792.76904000000 2784.85010000000 2777.81592000000 2771.84399000000 2765.91211000000 2761.07788000000 2755.40308000000 2749.58008000000 2743.34302000000 2736.64795000000 2730.08008000000 2725.09106000000 2720.87402000000 2715.43799000000 2710.20898000000 2704.70410000000 2699.36304000000 2694.51611000000 2690.08691000000 2685.19409000000 2679.99609000000 2675.15210000000 2669.80493000000 2664.78296000000 2660.24707000000 2657.21704000000 2654.67896000000 2653.85205000000 2651.83594000000 2648.45410000000 2644.08911000000 2641.13892000000 2638.37598000000 2635.81909000000 2632.67505000000 2627.28491000000 2622.31006000000 2620.72900000000 2618.95288000000 2616.35303000000 2612.73706000000 2608.32495000000 2604.59106000000 2600.46094000000 2596.82007000000 2593.67896000000 2590.53394000000 2587.37305000000 2583.14209000000 2577.82007000000 2573.54297000000 2572.04712000000 2568.80298000000 2564.87793000000 2562.27905000000 2559.22095000000 2555.97290000000 2551.84912000000 2545.63306000000 2540.30811000000 2535.93896000000 2530.70190000000 2526.19507000000 2521.49390000000 2516.85889000000 2512.06494000000 2507.42090000000 2503.06201000000 2499.06396000000 2495.28101000000 2491.41797000000 2486.32397000000 2480.60303000000 2475.39209000000 2470.42896000000 2466.66504000000 2463.29297000000 2458.57300000000 2453.96899000000 2446.85596000000 2439.16504000000 2432.52393000000 2427.13696000000 2421.30005000000 2414.48901000000 2405.76196000000 2397.58301000000 2390.08105000000 2381.20410000000 2371.64600000000 2362.30591000000 2353.78101000000 2345.66895000000 2338.96191000000 2333.14404000000 2326.97900000000 2320.46191000000 2313.05103000000 2304.55493000000 2296.77002000000 2289.37695000000 2281.98389000000 2274.48291000000 2266.02100000000 2256.29712000000 2246.88989000000 2236.90088000000 2228.04810000000 2219.22705000000 2210.52100000000 2202.19995000000 2194.24194000000 2186.55688000000 2179.10791000000 2171.84912000000 2165.47705000000 2159.59595000000 2155.28198000000 2152.10889000000 2150.47803000000 2149.81299000000 2149.22607000000 2147.13599000000 2143.86597000000 2138.77393000000 2133.95508000000 2131.33203000000 2130.28906000000 2129.89502000000 2128.21411000000 2125.96704000000 2121.68311000000 2116.45605000000 2110.22900000000 2106.88892000000 2105.14209000000 2103.92212000000 2102.44092000000 2101.37402000000 2101.04590000000 2100.81396000000 2100.62695000000 2100.79297000000 2100.03394000000 2099.32593000000 2098.70288000000 2098.31812000000 2098.15210000000 2097.97510000000
