ncols         248
nrows         56
xllcorner     496393.128733
yllcorner     4172862.66937
cellsize      30.0
NODATA_value  -9999
2488.8 2498.2 2505.8 2515.7 2527.2 2538.3 2552.6 2561.4 2571.7 2581.5 2591.4 2602 2609.5 2622.1 2634.3 2641 2646.2 2653.9 2657.8 2660.8 2664.8 2667.2 2673.1 2678.7 2687.4 2698.5 2708.8 2710.9 2718 2725.2 2734.5 2740.8 2742.2 2747.3 2753 2761.6 2771.4 2775.9 2782.5 2790.2 2800.8 2806.8 2812.9 2818.7 2823.3 2828.5 2832.1 2840.4 2850.1 2860.8 2866.8 2869.1 2867 2863 2857.2 2854.3 2853 2848.3 2847.8 2850.5 2856 2862 2871.4 2886.3 2901.9 2917.3 2931.5 2930.9 2932.7 2932.5 2933.5 2917.7 2903.1 2888.6 2875.2 2862.3 2849.8 2846.9 2847.4 2841.8 2835 2830.4 2823.5 2818.7 2812.4 2805.8 2801.6 2796.1 2789.8 2786 2784.1 2780.2 2777.4 2771.4 2762.8 2755.4 2734.2 2713.4 2695.4 2679.1 2663.4 2647.7 2631.3 2611.3 2592.7 2574.6 2556.9 2538.8 2521 2502.5 2485.4 2467.6 2450.2 2432.8 2413.8 2395.8 2377.9 2359.7 2343.7 2328.6 2315.2 2300.5 2286.6 2271.7 2255.4 2240.7 2231.6 2219.7 2217.3 2210.4 2205.5 2200.1 2190.5 2183.5 2178.5 2170.6 2161.9 2153.4 2144.4 2134.2 2123.2 2116.5 2111.1 2107.2 2099.9 2090 2074.6 2061.4 2048 2036 2020.1 2006.3 1993.4 1980 1967.3 1954.6 1940 1926.8 1915.4 1907 1900.6 1897.8 1899.7 1897.1 1884.3 1873.4 1860.5 1855 1861.3 1872.6 1861.2 1844.7 1837.8 1835.1 1829 1822.9 1822.2 1821.1 1817.2 1811.9 1802.4 1798.7 1793.5 1789.6 1783 1777.5 1774.9 1772.2 1764.8 1761.5 1757.7 1753.6 1747.8 1745.8 1744.2 1741.6 1735.1 1735.3 1734.2 1734.3 1732.1 1727.9 1724.3 1718.9 1717.9 1714.1 1709 1699.5 1692 1687.6 1685.4 1685.8 1685.1 1683.1 1682.6 1681.7 1680.6 1676.1 1670.6 1663.1 1657.7 1651.8 1643.8 1639.7 1634.7 1630.2 1627.1 1621.7 1616.1 1613.6 1608.2 1604.7 1601.7 1596 1588.7 1580.3 1572.6 1563.3 1552.7 1541.5 1534.5 1530 1521.8 1512.3 1505.2 1500.7 1498.2 1494.6
2479.5 2489.1 2499.9 2509.1 2519.9 2532.6 2543.6 2553.5 2565.2 2574.9 2583.2 2591.5 2600.1 2613.3 2624.5 2629.8 2637.7 2644.1 2648.3 2652.1 2656.4 2659.6 2665 2671.9 2683.3 2693.3 2703.2 2708.5 2714.1 2720.8 2727.9 2730.6 2735 2741 2751.3 2760.1 2763.7 2770.5 2778.6 2792.1 2797.6 2802.6 2811.5 2814 2818.2 2821 2832.6 2845.9 2859.2 2870.5 2878.2 2880.2 2877.4 2870.4 2863.3 2855.2 2849.4 2847.9 2844.3 2844.5 2848.9 2855 2863.6 2876.4 2893.4 2911.6 2921.6 2919.5 2913.5 2916.6 2923.7 2910.9 2894.7 2879.6 2864.8 2851.7 2841.5 2839.3 2838.5 2833.4 2827.9 2825 2818.2 2812.8 2807.1 2800.2 2793.6 2790.6 2785.1 2780.2 2778 2773.7 2771.2 2767.9 2761.6 2756.2 2737.2 2717.6 2699.8 2683.6 2669.6 2654.6 2637.9 2618.2 2598.3 2578.8 2561 2543 2525.2 2508 2491 2474.5 2456.5 2437.8 2419.1 2400.3 2381.3 2361.6 2343.1 2325.5 2309.7 2295.2 2282.2 2266.5 2250.4 2234.6 2221.2 2212.2 2205.5 2203.6 2199.2 2194.1 2188 2177.1 2170.3 2162.4 2154.2 2146.8 2138.2 2127 2117.8 2108.5 2103.2 2098.1 2094.3 2086.1 2072.6 2058.7 2044.7 2030.4 2015.8 2000.5 1987.8 1976.2 1961.2 1945.7 1932 1918.4 1908.3 1899.7 1894.5 1888.3 1892.6 1897.6 1890.2 1886.8 1877.2 1868.2 1870.8 1866.8 1853.9 1839.3 1830.7 1825.3 1820.1 1815.3 1811.9 1810.7 1807.3 1803.9 1797.7 1790.7 1785.5 1783.5 1779.6 1773.3 1766.8 1765.8 1760.6 1752 1751.6 1748.3 1743.7 1742.1 1739.3 1736.4 1731.1 1728.8 1727.1 1728.6 1725.8 1717.2 1716.3 1716.5 1711.7 1706.1 1702.8 1696.6 1690.2 1685.1 1683.2 1681.4 1682.7 1678.2 1677.5 1677.8 1674.7 1668.3 1666.7 1659.5 1652.8 1650.1 1642.6 1636.5 1633.5 1630 1626 1620.3 1616.3 1611.9 1607.9 1603 1598.9 1592 1586.4 1577.1 1569.9 1564.4 1557.3 1546.8 1536.7 1526.3 1516.6 1510.6 1506.3 1503.1 1497.1 1491
2471.3 2482.4 2492 2500.9 2512 2524.2 2534.8 2546.2 2558.4 2566.3 2575.3 2585.2 2594.4 2605 2615 2622.6 2628 2633.5 2637.5 2643.5 2648.3 2651.5 2657.3 2666.1 2676.3 2685 2695.9 2701.4 2711 2715.1 2718.8 2723.4 2731.2 2740.6 2749.4 2756.1 2763.6 2775.8 2784.9 2790.4 2795.8 2799.5 2804 2808.1 2811.1 2823.5 2836.5 2852.2 2865.7 2877.7 2877.1 2879.5 2884.3 2877.4 2867.6 2856 2848 2844 2841.8 2841.3 2845.9 2853.1 2861 2874.1 2892.5 2911.2 2915.4 2906.6 2898.7 2902.4 2914.8 2909.5 2892.1 2875 2858.4 2844.2 2836 2832.8 2829.3 2826.4 2821.3 2817.9 2814.7 2808.6 2801.3 2796.5 2790 2785.5 2779.8 2775.2 2772 2768.8 2765.5 2764.1 2759.2 2753.5 2738.5 2721.9 2706.5 2691 2674.6 2658.4 2642.6 2624.3 2603.2 2583.2 2563.6 2545.1 2525.9 2507.2 2489.7 2472.7 2455.5 2437.3 2419.8 2401.7 2382.1 2363.7 2344 2325.1 2307.4 2289.8 2273.9 2260 2245.1 2228.6 2213.9 2202.3 2196.3 2195.2 2189.7 2184.9 2180.7 2170.3 2161.6 2154.7 2146.8 2139 2130.3 2122 2112.1 2103.3 2092.3 2088.1 2087.6 2082.7 2070.4 2055.3 2042 2028.7 2013.7 1999 1982.9 1967.8 1954.6 1940.5 1925.2 1909 1896.7 1894 1885.7 1878.9 1879 1881.4 1884.8 1885.7 1881.2 1874.1 1866 1855.6 1842.9 1829.7 1820.4 1812.7 1806.1 1807 1802.5 1801.4 1798.4 1794.9 1791 1783.1 1780.6 1778.4 1775.4 1769.8 1761.2 1760.8 1757.1 1747.2 1745.8 1743.7 1738.3 1736.9 1735.3 1731.1 1728.3 1722.3 1722 1722.6 1718.6 1713.1 1708.3 1710.2 1707.8 1704 1697.2 1689.8 1682.9 1680.9 1678.6 1676.9 1675.8 1676.3 1669.1 1672.2 1669.5 1664.5 1661.9 1659.2 1654 1647.8 1640 1635 1631.1 1627 1622.8 1618.6 1613.2 1609.8 1607.4 1603.6 1596.2 1589.1 1579.3 1570.9 1563.4 1557.7 1550 1541.6 1534.1 1527.4 1521 1512.3 1505.8 1501.6 1495.8 1490.1
2465.2 2474.3 2481.8 2490.9 2502.9 2515.1 2526.8 2539.1 2548.1 2556.9 2567.9 2578.4 2587.8 2598.6 2607.1 2613.9 2618.7 2624.6 2630.2 2636 2641.4 2644.8 2651.2 2662.4 2671.8 2682 2690.4 2698.5 2706.5 2706.2 2711.4 2716.6 2726.9 2738 2746 2759.7 2769 2772.5 2775.8 2779.7 2783.4 2791.6 2794.9 2800.8 2811.4 2824.4 2839.6 2853 2866.6 2871.9 2870.4 2877.4 2885.6 2879.4 2867.9 2856.9 2846.8 2841.8 2839.3 2841.5 2846.8 2856 2863.6 2877.1 2892.5 2909.5 2908.8 2894.1 2894.2 2901.9 2914.2 2910.7 2893.1 2874.3 2856.6 2840.4 2831.1 2827.3 2822.6 2820.4 2816.2 2811.8 2809.1 2804.7 2799.2 2793.4 2787.1 2780.9 2775.1 2769.9 2766.9 2764.7 2761.4 2759.4 2755.3 2753.5 2741.2 2725.1 2709.6 2694.2 2679.4 2664.2 2646.8 2627 2604.7 2583.3 2562.2 2541.5 2521.2 2501.1 2482.6 2464.7 2447.2 2430.2 2414.7 2397.7 2379.8 2360.7 2341.4 2322.2 2304 2286.4 2269.7 2253.4 2238.7 2222.3 2208.4 2196.5 2190.8 2183.8 2182.9 2174.8 2170.1 2163.3 2155 2145.4 2139.1 2127.4 2121.9 2117.4 2108.7 2097.7 2088 2081.8 2076.2 2071.1 2064.4 2053 2039.1 2025.5 2012.7 1996.4 1980.7 1963.9 1949.1 1933.8 1919.6 1906.2 1893.5 1881.9 1878.2 1868.5 1862.4 1863.4 1864.5 1865.9 1863.4 1857 1850.6 1841.4 1829.9 1818.3 1808.1 1801.1 1793.6 1795 1797 1793.8 1790.2 1786.5 1783.1 1775.3 1772.8 1770.7 1769.8 1768.2 1756.8 1752.5 1750.5 1744.8 1739.2 1739.8 1732.5 1731.7 1730.8 1726.2 1722.7 1716.2 1717.9 1714.6 1712.4 1708.8 1705.4 1705.6 1704.4 1700.2 1694.1 1687.4 1677.8 1673.3 1674.5 1672.3 1670.5 1671.2 1664.5 1663.9 1664.8 1662 1658.9 1657.6 1654.5 1645.5 1639.8 1635.4 1629.1 1623.5 1619.5 1616.2 1612.5 1605.7 1603.1 1600.3 1596.6 1588.2 1579.9 1572.1 1561.8 1555.2 1550.4 1542.3 1534.4 1527.4 1522.4 1514 1509 1504.6 1495.9 1487.4
2457.6 2465.3 2473.8 2483.3 2495 2507.2 2518.7 2527.8 2537.5 2547.6 2559.6 2572.4 2583.3 2591.3 2598.9 2604.7 2610.2 2617.6 2622.6 2629.1 2633.9 2638.8 2647.5 2659.7 2669.2 2678.7 2689.6 2694.3 2696.3 2701.3 2707.4 2713.8 2722.1 2733.1 2744.3 2752.8 2756.3 2758.8 2765.3 2772.4 2777.1 2782.3 2790.8 2800.2 2812 2824.4 2837.2 2850.3 2859.4 2864 2866.5 2876.3 2881.6 2874.7 2863.9 2854.6 2844.7 2839.1 2837.1 2840 2849.3 2855.1 2863.5 2872.3 2885.5 2903 2903 2886.9 2894 2917.5 2926.6 2912.3 2894 2874.7 2855.9 2837.5 2826.6 2820.9 2817 2814.2 2811.6 2807.1 2802.9 2798.8 2795.1 2790.6 2784.1 2778 2773.5 2767.2 2761.7 2761.8 2758.9 2755.9 2754.7 2753.2 2743.4 2725.2 2708.9 2694.2 2677.6 2661.3 2645 2626.5 2606.1 2583.4 2560.4 2539 2518.3 2498.9 2479.6 2461.5 2443.5 2426.3 2410.7 2395.6 2378.8 2360.9 2342.5 2324.1 2305.4 2287.4 2270.2 2254.1 2237.7 2220.8 2204.9 2191.4 2184.1 2176.9 2169.9 2168.7 2159.9 2153.6 2145.3 2137.6 2130 2122.9 2115.4 2108.2 2102.5 2092.8 2083 2077.3 2070.9 2062.9 2055.2 2044.7 2031.4 2019.4 2006.1 1991.6 1978.3 1960.2 1942.5 1925 1910.4 1898.1 1888.2 1878.7 1868.1 1858.4 1850.2 1845.5 1845.6 1845.1 1843.5 1838.8 1832.5 1824.7 1815 1805.2 1795.5 1788.6 1781.8 1784.9 1789.7 1787.3 1783.1 1776.1 1771.4 1767.7 1766.2 1764.1 1761.9 1763.9 1757.4 1746.2 1741.4 1737 1731.6 1733 1729.8 1727.6 1726 1721.4 1717.2 1714.1 1711 1710.5 1708.3 1706.1 1703.2 1701.7 1698.7 1695.8 1691.4 1686.9 1679.5 1670.7 1665.6 1666.3 1664.8 1664 1663.2 1659.7 1660 1658.7 1656.9 1652.4 1651.7 1645.2 1637.5 1633.6 1628.5 1623.2 1618.6 1613.6 1610.3 1605.7 1600.5 1596.7 1594.3 1584.7 1576.2 1568.2 1561.3 1555.9 1549.4 1542.9 1536.5 1530.9 1522.5 1513.8 1507.9 1500.6 1492 1484.7
2450 2458.1 2466.9 2478.3 2488.8 2499.4 2508.1 2517.8 2529.6 2541.9 2553.2 2566.9 2574.3 2581.7 2588.7 2597 2603.5 2610.9 2615.9 2621 2626.5 2634.3 2645.2 2654.8 2663.1 2672.6 2684.9 2686.7 2690.7 2697 2703 2711.6 2722 2732 2742.8 2747.2 2752.8 2755.7 2760.7 2767.6 2775.7 2785.6 2794.5 2802.5 2811.5 2822.5 2833.8 2844.2 2851.2 2856.3 2863.8 2871.3 2870.3 2864.7 2857.7 2848.8 2839.9 2835.1 2833.7 2837.6 2848.4 2852.5 2860.2 2862.7 2878.5 2897.6 2911.2 2898.4 2895.4 2913.9 2928.1 2910.3 2891.8 2873.1 2854.5 2836.1 2822.6 2816.3 2811.1 2808.1 2805.6 2802.6 2798.2 2793.2 2788.4 2785.6 2780.3 2774.5 2770.5 2765.6 2759.4 2758.4 2754.2 2752.9 2752.9 2752.5 2750.1 2733.1 2712.4 2691.6 2674.4 2658.3 2643.8 2629.7 2607.2 2585.5 2561.4 2538.9 2518.5 2498.9 2480.2 2462.4 2445.2 2428.2 2411.2 2395.6 2380.4 2363 2345.6 2327.5 2309.6 2291.7 2274.7 2260.1 2241.5 2223.7 2206 2190.5 2177.7 2170.3 2161.6 2153.8 2151 2145.2 2136.7 2130.7 2122.2 2117.9 2111.8 2103.8 2097.4 2088 2077.7 2070.6 2065.6 2058.8 2049.5 2037.7 2026 2014 2000.6 1986 1970.6 1954.7 1938.7 1919.9 1901.9 1889.1 1880.5 1871.3 1862.5 1853.2 1843.8 1831.7 1827.4 1825.9 1824.3 1820.5 1815 1808.1 1799.6 1791.3 1782.5 1776.8 1775.4 1777.7 1782.1 1780.4 1776 1768.1 1763 1758.9 1757 1757.3 1756.2 1753.3 1751 1745.5 1737.9 1729.2 1726.5 1726.4 1724.9 1721.6 1720.3 1716.6 1713.6 1711.4 1704.5 1704.8 1702.1 1703.5 1696.2 1694.9 1691.9 1689.5 1684.4 1681.2 1679.9 1675.8 1668.2 1660.3 1661.3 1660.4 1660.2 1657.9 1655.3 1655.6 1653.2 1649.1 1645.3 1641.3 1632.5 1629.8 1626.4 1623.8 1617.8 1612 1607 1603.1 1600.7 1595 1590.7 1582.9 1574.8 1568.3 1562.9 1557.5 1551.3 1544.1 1538.5 1528.7 1522 1513.9 1505.9 1500.7 1494.1 1485.2
2443.5 2450.9 2459.5 2470.7 2481 2489.8 2500.2 2510 2523.5 2535.7 2548.9 2560.3 2567.6 2573.6 2583.7 2590.7 2596.1 2602.9 2608.3 2612.7 2620.8 2629.5 2640.3 2648.8 2657.9 2670.2 2677.3 2682.2 2686.7 2692.2 2698.7 2707.9 2716.1 2724 2732.9 2739 2746.9 2755.9 2764.8 2772.5 2781.3 2788.9 2797.3 2803.9 2810.3 2818.9 2828.2 2836.4 2842.9 2848.5 2855.6 2859.4 2857.1 2852.4 2846.3 2840.2 2833.5 2829.2 2828.7 2834 2846.1 2850.7 2855.5 2858.4 2874.9 2893.6 2912.7 2904.4 2901 2915.5 2921.2 2904.8 2886.5 2868.7 2850.9 2833.4 2818.5 2811.4 2805.5 2801.9 2800 2798.7 2794.3 2788.9 2783.9 2779.4 2774.6 2770.7 2767.3 2764.3 2759.9 2756 2752.8 2751 2752.4 2751.9 2749.5 2728.7 2707.1 2689 2671.6 2656.6 2642.4 2629.2 2610.2 2585.2 2563.8 2542 2520.8 2501.5 2483.5 2466.1 2448.9 2432.4 2416.4 2400.9 2385.4 2367.5 2349.9 2333.8 2317.3 2299.2 2279.5 2261.5 2243.8 2226.3 2208.9 2191.9 2175.1 2161.6 2152.4 2142 2139.2 2137.1 2131.5 2124.1 2118.9 2113.3 2105.6 2097.9 2092.6 2084.8 2076.4 2066.8 2060.8 2053.5 2043.7 2031.5 2021.7 2009 1993.3 1978.8 1964.6 1948.1 1931.2 1915.9 1899.4 1883.5 1870.8 1862.8 1854.9 1844.5 1837.8 1824.5 1813.5 1808.1 1805.6 1801.7 1797.4 1791.7 1784.8 1777 1769 1766.6 1770.2 1770.6 1776 1775.8 1772.5 1765.8 1760.8 1755 1750.6 1748.8 1749.2 1746.5 1742.9 1739.4 1735.8 1729.4 1725 1721.2 1721.6 1714.1 1716.5 1715 1710.6 1709.2 1700.7 1699.6 1697.6 1696.3 1695.7 1691.3 1688.9 1686 1682.5 1676.8 1675.7 1672.9 1668.6 1661.1 1657.6 1656.8 1654.6 1653.3 1650.5 1653.1 1650.8 1647.8 1642.3 1634 1630 1623.8 1622.2 1620.7 1617.3 1613.4 1607.3 1601 1596.4 1591.6 1587.3 1580.7 1573.3 1566.6 1562 1556.4 1551.9 1545.5 1539.8 1534.9 1525.1 1514.2 1506.4 1501.1 1494.1 1486.1
2436.1 2443.2 2452.7 2462.5 2472.3 2483 2493.1 2504 2516.1 2531.1 2546.6 2555.3 2561.7 2570.1 2578.4 2583.9 2590.2 2596.5 2601.8 2609.6 2617.4 2626.3 2635.5 2646.3 2654.7 2661.5 2668.1 2675.6 2680.4 2685.9 2694.3 2700.4 2710.2 2720.2 2730.1 2741 2750.7 2759.7 2769.1 2778.1 2784.8 2791.5 2797.1 2803.2 2810.2 2817.5 2824.8 2829 2834 2839.2 2843.6 2845.2 2843 2839.7 2834.7 2828.6 2822.9 2820.7 2820.8 2827 2840.6 2850.3 2852.2 2860.3 2871 2888.8 2907.3 2915.3 2915.4 2918.3 2907.1 2894.1 2879 2862.6 2846.5 2829.5 2813.8 2806.5 2800 2795.5 2793.2 2790.7 2788.4 2784.3 2779.8 2774.3 2770.2 2767.2 2764.8 2762.1 2758.4 2755 2751.7 2749.1 2750.3 2751.3 2748.1 2727.7 2705.6 2686.8 2670.6 2655.3 2641.4 2628.2 2611.7 2590.4 2568.5 2548 2526.1 2507.4 2489.8 2472.6 2455.6 2438.5 2422.7 2406.3 2389.9 2374.1 2358.3 2343.3 2329.8 2311.2 2286.9 2268 2248.6 2229.6 2212 2195.2 2178.6 2160.2 2143.3 2134.3 2126.8 2129.1 2128.1 2123.3 2118.1 2111.4 2104.4 2098.3 2092.3 2086.1 2074.6 2065.6 2054.8 2047.1 2035.6 2025.4 2014.2 2004 1989.5 1970.7 1953.6 1938.9 1922.8 1907.6 1892.1 1879.1 1865.6 1853.9 1844.9 1836.5 1828.2 1820.3 1808 1797.1 1789 1784.8 1781 1775.6 1769.6 1764 1762.7 1763 1765.2 1767.6 1772.4 1771.7 1768.9 1765.8 1760.4 1754.4 1750.5 1747.1 1743.6 1740.2 1738.3 1734.9 1733.2 1727.1 1723.1 1719.5 1716.5 1712.9 1712.3 1715.5 1710.3 1705.3 1696 1693.4 1694.1 1692 1692.5 1688.1 1685.7 1683 1679.5 1675.9 1669.4 1665.5 1664.1 1660.9 1654.2 1654.1 1650.3 1651.9 1650.9 1648.1 1647.2 1644.6 1641.5 1635.6 1626.5 1621.2 1619.5 1619 1614.6 1610.8 1603.7 1598.2 1593.1 1587.8 1583.4 1577.1 1569.5 1565 1560.9 1555.3 1549 1542.7 1536.4 1532.1 1526.7 1520.3 1514.2 1507.7 1502.7 1495.9
2428.1 2436 2446.2 2457.1 2468.2 2478.4 2489.1 2500.4 2511.5 2527.1 2540.2 2548.4 2555.8 2565 2571.4 2577.2 2584.1 2590.3 2596 2606.6 2615.6 2624.7 2633.2 2641.8 2646.8 2654.7 2662.4 2669.9 2673.7 2684.1 2690.2 2698.2 2710.1 2721.9 2731.4 2740.7 2749.3 2757.8 2767.7 2776.6 2785.6 2792.4 2797.4 2802.2 2808.5 2816.3 2821.7 2822.9 2825.1 2828.3 2831.1 2831.7 2829.9 2826.7 2822.6 2817.5 2812 2810.2 2810.3 2817.5 2830.2 2845.4 2852.8 2858.4 2868.4 2883.2 2896.6 2909.2 2908 2901.8 2893.1 2881.4 2868.4 2854.5 2839.3 2823.8 2808.5 2800.8 2795.5 2790.2 2786.5 2783.5 2780.5 2777.9 2773.9 2769.6 2765.9 2763.3 2761.5 2759.4 2756.1 2753.1 2749.2 2746.8 2746.8 2747.8 2743.9 2731.2 2709 2689.1 2671.7 2656.2 2641.8 2628.5 2613.2 2593.3 2572.2 2551.1 2533.5 2515.6 2499.5 2483 2468.1 2449.1 2433.6 2414.6 2396.7 2379.6 2365.2 2352 2344.2 2334.4 2307.2 2281.7 2257.5 2237.9 2222 2198.8 2179.7 2161.1 2141.2 2125.8 2118.8 2116.9 2118.6 2118.2 2116 2109.8 2103.9 2097.1 2091.5 2081.5 2071.3 2058.1 2046.6 2033.9 2022.3 2012.5 2002.3 1991.9 1980.8 1965.1 1947 1929.4 1912.1 1898.9 1884.2 1870.6 1860.6 1847.1 1835.7 1827 1818.2 1809.7 1800.3 1790.6 1780 1770.7 1765.4 1762.2 1760.9 1760.5 1761.8 1762.6 1763.9 1764.9 1768.7 1768.8 1766.2 1764.2 1758.9 1755.9 1752.6 1746.1 1741 1737.3 1735.1 1733.1 1730.3 1726.3 1721.7 1719.2 1716 1713.8 1709.2 1708.4 1705.5 1699.7 1692.4 1687.6 1689.8 1686.4 1685.1 1681 1678.4 1676.4 1676.4 1673.1 1667.1 1660.4 1657.7 1656.3 1652.6 1648.5 1646.8 1644.1 1649.2 1642.8 1640.6 1638.2 1636.8 1631.8 1628.5 1620.7 1617.6 1615.7 1610.5 1605.2 1598.7 1595.4 1590.8 1587.6 1584.2 1576.2 1567.7 1563 1557.7 1552 1547.1 1546.6 1542.5 1537.8 1529.9 1522.9 1514.3 1506.4 1501.3 1495.9
2419.4 2429.3 2442.2 2452.9 2463.2 2473.9 2486 2497.6 2509.3 2521.9 2533.3 2543 2551.6 2558.2 2563.9 2569.7 2576.8 2583.5 2590.6 2601 2610.8 2619 2626.6 2633 2643.9 2651.7 2657.9 2663.1 2672.2 2680.9 2689.5 2699.8 2709.6 2718.6 2726.4 2734.2 2742.3 2751.7 2762.2 2772.6 2781.2 2788.1 2793.1 2798 2803.7 2809.4 2813.3 2814 2815.1 2816.8 2818 2818.3 2816.1 2813.4 2809.4 2804.5 2800.4 2798.3 2798 2806.2 2818.1 2833.5 2849.6 2860.1 2868.3 2881.2 2884.2 2893 2892.3 2885.9 2877.8 2868.1 2857.1 2844.5 2830.9 2816 2801.8 2794.4 2789.2 2783.6 2780.4 2777.8 2774.6 2771.5 2767.5 2764.1 2760.9 2758.1 2756.5 2755.1 2753.1 2749.6 2746.8 2744.3 2743.3 2743.2 2739.4 2729.2 2717.3 2697.1 2678.1 2659.4 2642.3 2628.5 2617.2 2598.3 2578.3 2559 2542.8 2527.3 2512.7 2500.5 2487 2473.2 2457.2 2431.6 2419 2388.6 2373.9 2354 2349.9 2351.4 2321.1 2294.8 2268.8 2251 2236.2 2213.9 2187.4 2164.7 2145 2123.2 2113.6 2108 2108.2 2108 2111 2107.4 2096.7 2091.1 2083.6 2073.4 2061.7 2051.4 2035.5 2022.9 2010.5 1999.6 1988.9 1979.3 1967.3 1953.8 1939.6 1924 1907.4 1894 1879.2 1862.5 1849.7 1842.7 1830.9 1819.1 1808.9 1802.6 1793.3 1786 1778.5 1770.7 1762.6 1759.8 1759.4 1758.5 1760 1759.7 1760.3 1762 1765.8 1764.6 1763.2 1759.5 1754.9 1753.2 1750.4 1745.5 1741.1 1734.4 1734.3 1733.4 1730.8 1726.9 1724.7 1721.7 1716.5 1712.9 1710.7 1706.5 1697.7 1690 1685.3 1681.6 1680.1 1682.8 1679.4 1675.1 1672.5 1672.2 1670.2 1668 1662.8 1657.8 1654.5 1653.7 1648.4 1644.5 1640.8 1640.7 1640 1640.8 1634.6 1634.3 1629.3 1628.4 1622.9 1621 1618.5 1615.5 1610.6 1603.5 1597.4 1592.2 1587.9 1583 1582.5 1576.5 1570.1 1566 1560 1557.3 1551.6 1548 1543.9 1538.6 1532.6 1525.7 1515.9 1507.3 1500.9 1494.7
2413 2424.1 2436.9 2447.8 2458.9 2470.1 2483.3 2495.5 2506.8 2518.8 2530.8 2538.9 2545.7 2551.6 2558.1 2564.9 2573.2 2581.8 2590.3 2598.5 2604.8 2611.5 2619.8 2629 2637.7 2643.9 2649.5 2658.9 2669.8 2680.1 2688.1 2695.7 2703.6 2711.3 2719.5 2727.5 2736.5 2746.1 2756.6 2765.8 2772.6 2778.8 2784.4 2790 2795.1 2799.7 2802.5 2803.4 2803.6 2804.4 2805 2804.2 2802.7 2799.6 2795.7 2792.1 2787.8 2786.1 2785.8 2794.2 2806.8 2821.2 2836.2 2851.3 2865.3 2876 2877.5 2877.3 2874.9 2869.9 2861.8 2853.5 2844.3 2833.7 2821 2807.5 2794.4 2787.3 2783.3 2778.9 2775 2772.9 2768.9 2765.6 2763.8 2760.1 2756.6 2754.3 2751.8 2751.2 2748.4 2746.3 2742.8 2739.9 2739.4 2739 2735.8 2727.9 2717.6 2700.3 2680.5 2660.9 2641.3 2626.2 2614.7 2602 2584.7 2569.3 2556.5 2539.7 2520.8 2508.2 2498.8 2484.5 2469.8 2440.2 2417.2 2390.6 2368.4 2350.2 2333.3 2328.3 2321.3 2300.4 2288.7 2274.2 2250.9 2220 2197.4 2173.8 2148.8 2124.4 2110 2105.5 2102.8 2102.5 2102.5 2103.9 2095 2087.5 2080.2 2069.5 2053.8 2039.7 2028.9 2011.7 1998.4 1988.4 1976.4 1964.8 1953.8 1941.4 1930.6 1916.4 1902.7 1886.2 1872.4 1857 1842.4 1831.7 1824.6 1816.9 1806.6 1796 1788.9 1780.9 1773.8 1768 1765.4 1759.5 1758.3 1757.3 1756.9 1757 1758.2 1758.2 1758.1 1760.7 1760.1 1754 1750.7 1746.7 1744 1743 1741.8 1738.1 1734.2 1732.8 1729.8 1726.2 1724.2 1720.8 1717.5 1714.2 1708.4 1704.5 1694.3 1688.8 1681.8 1677 1675 1678.1 1676.6 1671.7 1668 1665.2 1663.6 1660.8 1659.6 1655.5 1652.5 1650.1 1646.1 1644.3 1642.1 1633.8 1634.1 1632.1 1631.2 1628.4 1625.3 1621.5 1622.2 1618.3 1615 1613.1 1611.7 1603.4 1597.2 1593.2 1587.4 1580.2 1576.3 1575 1573 1566.5 1560.4 1558.5 1555.3 1550.2 1540.2 1533.5 1528.8 1520.4 1512.4 1506.2 1499.9 1494.4
2409.8 2420.1 2432.3 2444.8 2458 2470.8 2483.8 2495.8 2508.2 2517.8 2525 2532.8 2539.9 2547.4 2554.3 2561 2569.7 2577.9 2585.4 2591.6 2596.7 2606.5 2613.5 2620.5 2629 2635.2 2646.6 2656.7 2665.4 2672.9 2680.6 2688.3 2697 2706.1 2714.4 2722.1 2731.7 2741.7 2750.7 2757.1 2763 2768.9 2774.6 2780.4 2785.7 2789.7 2791.7 2792.3 2791.7 2791.8 2792.1 2790.6 2788.5 2786.1 2782.5 2779.2 2776.1 2774.6 2774.1 2781.5 2794.5 2808.9 2823.2 2837.2 2850.2 2859.1 2858.9 2857.9 2856.9 2853 2846.8 2838.6 2829.9 2820.2 2809.2 2797.6 2788 2780.2 2776.8 2773.5 2769.8 2767.1 2764 2760.9 2758.9 2756.2 2752.6 2750.1 2748.4 2747.2 2744.8 2741.9 2738.3 2736 2735.2 2735.3 2731.2 2724.4 2717.5 2701.7 2679.6 2660.9 2641.1 2623.5 2610.5 2597.2 2582.3 2567.9 2552.9 2539.7 2522.4 2504.4 2489.2 2469.9 2454.8 2444.8 2417 2384.1 2370.3 2339.4 2322.3 2310.9 2303 2289.7 2270.2 2257.6 2237.6 2218 2194.4 2174.4 2148.4 2125.9 2108.4 2102.8 2101 2099.1 2097 2093.2 2091.2 2086.1 2076.1 2063.7 2048.8 2029.9 2014.8 2001.7 1988.1 1977.2 1966.2 1955.1 1942.6 1932.3 1919.5 1906.7 1893.3 1879.3 1866.2 1854.5 1840.1 1828.1 1818.7 1810.9 1802.4 1794 1783.6 1777.2 1772.3 1769.3 1763.1 1759.3 1758.7 1757.6 1756.4 1755.6 1755.5 1755.3 1753.1 1755.8 1751.2 1747.2 1745.4 1744 1739.1 1737.8 1738.8 1737.4 1735.6 1731.2 1726.4 1722.8 1722 1716.9 1713.5 1711.4 1705.8 1700.1 1695 1689.6 1684.8 1678.6 1673.7 1670.7 1671.6 1668.9 1666.8 1660.7 1660.7 1660 1656.1 1650.2 1649 1647.1 1646 1642.3 1639.8 1628.1 1626.3 1626.8 1625.9 1622.5 1624.4 1618.9 1613.8 1614.2 1612.8 1612.4 1609 1603.3 1599.6 1595.1 1590 1583.7 1577.3 1576 1574.7 1569.8 1564.5 1563.4 1560.8 1551.9 1542.6 1533.9 1528.8 1523.7 1516.6 1511.6 1507.6 1502
2407.5 2419.2 2432 2445.2 2457.4 2470.2 2482.8 2495.6 2506 2513.4 2520.7 2529.4 2537.1 2545.5 2552.2 2559.2 2568.6 2575.7 2580 2583.4 2590.6 2598.6 2604.6 2611.3 2619.4 2629.7 2641.8 2650.4 2657.8 2664.5 2672.6 2681.9 2692.4 2702 2709.6 2718.2 2728.1 2736.5 2742.4 2748.2 2754.1 2759.4 2764.9 2770.7 2776.1 2779 2780.4 2781.1 2780.6 2779.6 2778.8 2777.4 2775.5 2772.7 2769.9 2766.8 2763.9 2763.3 2764.1 2769.4 2782.2 2796.1 2809.8 2822.7 2834 2839.6 2839.1 2839.6 2839.3 2835.3 2830.1 2823.2 2815.3 2807.1 2796.8 2788.1 2781.9 2775.4 2770.7 2768.9 2763.7 2761.8 2759.6 2755.6 2753.4 2751.7 2749.6 2747.1 2744.8 2742.9 2740.6 2737.1 2734.4 2731.5 2729.7 2730 2728.4 2720.3 2713.7 2703 2684.8 2666 2646.7 2623.6 2607 2592.2 2570.2 2556.2 2541.7 2528.9 2515.2 2500.6 2479.3 2454.6 2434.8 2422.6 2408.5 2370.1 2350.2 2328.4 2310.3 2296.3 2283.8 2273.1 2260.9 2240.8 2225.6 2204.8 2189.7 2179.9 2162.1 2136.7 2115.5 2103.2 2097.7 2097.1 2093.6 2089.1 2086.1 2082.8 2074.3 2050.2 2039 2025.2 2008.9 1990.7 1977.7 1966 1955.3 1945 1935.1 1926.9 1912.2 1896.5 1885.7 1871.9 1858.7 1844.9 1834.3 1823.8 1815.1 1807.6 1798.9 1791.2 1785.1 1778.8 1772.4 1770.1 1766.8 1763.8 1760.2 1757.3 1756.1 1755.1 1753 1752 1750.2 1750.1 1747.7 1742.1 1742.4 1740.5 1737 1734.5 1734.3 1736.3 1735 1731.6 1726.8 1721.8 1717.6 1712.4 1707.1 1704.7 1702.5 1697.6 1694.9 1692.8 1686.2 1677.3 1673 1670.9 1667.8 1665.3 1663.4 1657.1 1654.9 1654.5 1650.1 1645.1 1644 1644.9 1642.5 1640.8 1638.5 1628 1626.5 1624 1621.2 1620.1 1619.1 1618.7 1612.5 1611.4 1611.5 1609.2 1606.2 1600.3 1596.8 1593.5 1591.7 1588.4 1580.9 1577.6 1575.1 1572.2 1569.5 1568.8 1562.2 1554.5 1547.4 1541.6 1532.9 1525.1 1521.1 1518.9 1512.4 1506.3
2406.6 2418.6 2432.5 2445.3 2457.4 2469.5 2482.6 2494.3 2501.9 2511.1 2518.3 2525.7 2533.3 2543.5 2553.9 2561.7 2565.7 2570.4 2571.4 2576.8 2584 2590.6 2596.3 2604.1 2611.9 2624.5 2635 2643.1 2649.4 2656.7 2666.2 2677.3 2688.2 2697.7 2705.7 2714.4 2722.6 2728.3 2733.3 2739.2 2745.6 2749.9 2754.9 2761.1 2766 2767.9 2769 2769.5 2768.9 2768.1 2766.1 2764.6 2762.8 2760.1 2757.8 2755.2 2752.4 2753.4 2755.3 2759.6 2770.3 2784 2796.5 2808.7 2818.6 2820.9 2820.8 2821.2 2820.7 2817.8 2813.5 2807.3 2800.5 2792.7 2785.1 2779.2 2775.3 2769.8 2765.6 2762.8 2759.2 2756.5 2755.7 2751.8 2749.3 2746.7 2744.9 2742.9 2740.8 2740.1 2736.5 2733.1 2730 2727 2723.8 2723 2721.9 2717.4 2708 2694 2674.3 2658.6 2640.7 2618.1 2600.2 2584 2564.4 2543.1 2527.2 2513.8 2499.5 2486.2 2470.6 2448.5 2427.1 2406 2386.2 2360.4 2339.7 2319.5 2300.6 2284.1 2269.9 2257.8 2245.8 2229.2 2211.3 2193.6 2177.6 2162.6 2154.8 2145.6 2128.3 2113.4 2095.8 2092.3 2091.7 2091.3 2092.8 2090.5 2082.5 2035.9 2021.6 2011.9 1996.8 1980.3 1964.3 1954.4 1943.5 1934.3 1926.7 1917.7 1904.9 1887.3 1874.9 1866.1 1854.4 1838.6 1825.6 1815.1 1808.2 1802.9 1798.9 1790.8 1784.7 1779.3 1774.6 1770.2 1767.8 1765.2 1761.7 1758.3 1755.1 1754.4 1751.3 1748.5 1747.4 1746.8 1744.3 1740.6 1739.2 1736.2 1730 1727.5 1726.8 1730.9 1730.9 1729.1 1724.1 1719.7 1716.1 1710.6 1701.2 1697.4 1696.2 1691.6 1691.8 1689.9 1684.3 1677.7 1670.9 1668.8 1665.3 1661.6 1659.8 1655 1648.2 1648.2 1641.8 1638.2 1636.4 1641.6 1640.6 1640.7 1632.4 1628.1 1626.4 1623.8 1619.3 1620 1615.6 1616.8 1614 1610 1608 1606.7 1604.3 1599.4 1594.8 1591.6 1589.4 1588.5 1584.1 1579.8 1577 1573.1 1568.7 1567.2 1564 1558.1 1551.1 1543.1 1535.1 1528 1522.9 1516.9 1512 1504.9
2407.8 2419.7 2432.4 2444.6 2457.2 2468.4 2480.5 2490.6 2498.7 2507.1 2514 2521.1 2529.6 2541.6 2549.5 2554 2554.8 2560.4 2565.3 2570.8 2575.7 2583.4 2589.4 2595.4 2607.8 2619.3 2627.8 2635.4 2642.1 2650.7 2661.6 2672.8 2684.8 2694.7 2701.7 2708.4 2714.2 2719.1 2724.5 2730.6 2736.7 2740.6 2745.9 2751.1 2754.4 2755.9 2756.8 2757.6 2757.2 2755.9 2754 2752.8 2750.8 2748 2745.9 2743.8 2742 2744.4 2747.7 2750.8 2757.8 2770.1 2783.1 2794.8 2804.7 2810.4 2812.8 2811.2 2805.6 2801.2 2796.4 2791.4 2784.8 2778.9 2774.4 2771.2 2768.3 2764.7 2760.4 2756.8 2753.9 2751.6 2750.9 2747.3 2743.9 2741.3 2739.5 2737.7 2736.2 2734.6 2731.3 2728.8 2725.4 2722.8 2720.4 2717.9 2715.5 2712.3 2705.3 2687.7 2665.6 2646.4 2631.9 2609.4 2590.2 2572.6 2555 2536.5 2515.1 2497 2483.9 2468.7 2458.6 2438 2417 2397.8 2397.5 2350 2331.4 2312.8 2292.9 2274.8 2258.5 2244.3 2231.9 2219.6 2204 2184.8 2167.9 2151.5 2138.6 2131.8 2119.5 2103.6 2098.2 2088.9 2091.6 2097.8 2090.5 2074.6 2066.9 2040.9 2013.2 1998.2 1983.8 1968.6 1951.6 1939.5 1932.3 1924 1915 1905.9 1895.1 1881.8 1865.9 1853.8 1843.8 1831.6 1818.9 1809.8 1804.7 1800.8 1796.3 1790.3 1785.1 1780 1774.1 1769.2 1766.5 1763.2 1760 1757.5 1754.5 1751 1748.6 1748.1 1745.8 1745.7 1741.8 1739.2 1735.5 1733.6 1730.7 1724.9 1721.6 1723.5 1724.8 1725.5 1721.9 1717.7 1712.6 1707.7 1700.7 1694.2 1689.8 1688.6 1688.7 1686 1681.4 1675.8 1669.9 1667.4 1664.6 1659.4 1656.9 1654.2 1647.3 1643.2 1640.1 1632.8 1632.1 1638.8 1640.3 1636.2 1633.1 1628.8 1625.6 1623.6 1618 1616.9 1613.4 1608.8 1610 1604.3 1602.2 1600.3 1600.9 1598.2 1593.7 1591.8 1590.1 1586.6 1583.7 1581.9 1577.2 1570.2 1565.3 1564.6 1561 1556.1 1546.9 1540 1534.7 1530.1 1523.2 1517.6 1510.3 1504.1
2406.6 2418.1 2429.3 2439.9 2451.3 2462.2 2475.1 2485 2491.5 2499.2 2506.8 2516.2 2523.3 2530.6 2536.8 2539.8 2544.9 2553.3 2558.4 2561.5 2568.3 2575.3 2582.6 2591.6 2603.3 2613.2 2621.2 2629.7 2637.8 2646.9 2657.1 2668.6 2681.1 2690.3 2696 2700.7 2705.6 2710.3 2715.7 2721.8 2726.8 2731.7 2737.1 2740.9 2743.1 2744.1 2744.7 2745.4 2745.2 2744.2 2742.4 2740.5 2739.2 2736.9 2734.8 2733.3 2732.7 2736.6 2738.6 2742.4 2748.4 2759 2772.3 2786.8 2800.1 2809.9 2809.5 2801.4 2794.9 2789.2 2779.9 2777.5 2771.3 2767.3 2765.6 2763.7 2761.2 2758.9 2754.9 2751.2 2750.3 2746.6 2745.5 2744.1 2739.4 2736.9 2733.9 2733.1 2731.3 2728.9 2727.2 2723.7 2721.1 2719 2716.8 2714 2711.2 2706.6 2697.7 2685.4 2668.5 2645.4 2623.1 2600.9 2582.2 2563.6 2544.2 2526.2 2506.8 2487.5 2467.2 2451.9 2436.9 2427.8 2403.8 2386.3 2361.8 2336.6 2318.9 2301.8 2283.8 2265.9 2249.3 2233.5 2220.4 2208.7 2196.6 2180.5 2162.6 2144.6 2128.9 2116.9 2107.6 2094.7 2081.8 2077.3 2079.7 2090.2 2078 2061.3 2043.5 2034.1 2028 2004.2 1976.1 1958 1941.8 1926.7 1917.6 1912.3 1902.9 1894.3 1885.2 1874.4 1860.1 1843.8 1834 1822.7 1814.6 1808.7 1803.7 1799.5 1794.1 1788.9 1784.1 1778.6 1773.5 1768.3 1765.5 1763.4 1759.7 1756.9 1753.5 1750.2 1747.2 1745.7 1744.9 1742.1 1738.1 1736.6 1733.4 1730.2 1728.1 1724.7 1719.8 1718.6 1716.8 1721.1 1718 1713.6 1706.7 1701.3 1698 1696.3 1688.4 1683.8 1682.3 1679.1 1678.1 1675.3 1668.3 1665.1 1663.7 1660.9 1659.2 1655.7 1649.7 1645.9 1644.1 1638.1 1633.4 1633 1633.3 1633.8 1633.9 1628.7 1626.2 1622.3 1616.1 1612.7 1613.4 1606.5 1603.6 1605.5 1600.7 1593.7 1591.3 1589.5 1585.9 1586.1 1587.1 1586.6 1582.6 1578.6 1573.7 1567.6 1561.8 1558 1553.3 1549 1544.3 1537.1 1529 1526.4 1521.6 1517.7 1510.6 1504.6
2407.8 2417.4 2426.1 2435.2 2445.4 2457.2 2470.1 2478.3 2484.4 2489.2 2497.7 2505.7 2513 2518.4 2526.9 2533.3 2536.7 2543.6 2547.6 2553.7 2559.5 2567 2577.7 2589.1 2599.2 2607.5 2616.7 2625.8 2634.4 2642.7 2653.6 2665.3 2676.2 2683.5 2687.9 2692.5 2696.7 2701.6 2706.6 2712.3 2717.2 2722.2 2727.7 2730.1 2731.7 2732.1 2731.6 2733 2733.9 2732.7 2731.3 2729.3 2728.2 2725.6 2725 2723.9 2725.2 2727.1 2729.6 2736.3 2742.9 2752.5 2763.3 2779.5 2791.8 2798.1 2797 2791.9 2789.6 2781.7 2770.6 2764.5 2761.2 2759.7 2758 2756.6 2754.4 2752.4 2749.6 2746.7 2745.5 2743.8 2739.9 2739.6 2734.6 2732.2 2729.7 2727.5 2726 2723.4 2722.5 2719.5 2716.9 2714.1 2712.2 2710.5 2708 2702.1 2688.6 2666.3 2651 2635.5 2615.4 2594.5 2576.6 2557.5 2539.4 2519.9 2498.6 2479.4 2460.2 2439.9 2422 2405.7 2392.3 2371.5 2354.7 2334.9 2309 2290.8 2273.3 2256.5 2239.8 2223.5 2209.2 2196.6 2187.4 2172.6 2161.3 2143.6 2122 2106.6 2093.6 2082.3 2069.9 2063 2063 2070.8 2076.3 2061.5 2035.4 2016.4 2012.3 2001.6 1970.4 1945.4 1932 1916.9 1906.1 1896.7 1891.4 1879.9 1872 1866.8 1853.2 1838.5 1829.5 1819.9 1813.7 1808.5 1802.9 1798.6 1793.5 1787.6 1782.6 1778.7 1774.2 1769.3 1766 1762.9 1761 1756.6 1753.4 1749.9 1747.1 1741.9 1741.4 1739.4 1736.3 1733.4 1730 1728.9 1725.5 1723.9 1718 1712.8 1710.7 1713.1 1711.8 1710.8 1706.5 1698.6 1691.6 1688.6 1685.5 1680 1678.4 1675.6 1672.1 1669.2 1667.1 1663.9 1662.1 1660.5 1658.9 1655.2 1653.4 1648.5 1642.9 1638 1634.6 1632.1 1630.4 1629 1629.7 1623.7 1622.7 1620.1 1615.4 1610.2 1608.3 1607.9 1603.7 1597.7 1598 1591.6 1585.6 1581.1 1578.6 1575.7 1577 1581.5 1578.1 1571.2 1568.3 1564 1558.4 1552.4 1549.8 1545.4 1540.7 1535.5 1529.6 1525.3 1523.2 1517.8 1512.5 1506.2
2406.8 2415.5 2422 2430 2441.1 2452.9 2461.7 2467.5 2473.3 2479.2 2487.5 2497.5 2504.6 2510.7 2517.1 2522.9 2527.9 2533.2 2539.1 2545.8 2555.1 2565.6 2576.2 2585.5 2595.2 2603.7 2612.5 2621 2628.6 2638.9 2649.8 2660.6 2669.2 2674.8 2679.3 2683.6 2687.8 2692 2697.8 2703 2707.7 2712.8 2717.5 2719.2 2720.5 2720.9 2721.5 2721 2721.7 2721.7 2720.7 2719.2 2718 2716.9 2715.8 2714.8 2717.5 2720.6 2724.7 2730.5 2736.2 2743.1 2756.2 2768.4 2777.7 2784 2782.2 2780.9 2779.6 2774.4 2763.3 2755.5 2753.6 2752.8 2750.2 2749.7 2748.3 2746.4 2744.4 2742.2 2742.7 2741.2 2735.9 2733 2730.3 2727.2 2725.3 2723 2721.5 2720.1 2718.5 2714.9 2712.6 2710 2707.8 2706.8 2705.1 2699.8 2680.1 2655.4 2633.9 2617.6 2600.6 2579.9 2564.7 2549.7 2533.5 2518.6 2498.9 2474.2 2455.2 2436 2416 2397.2 2378.6 2358.9 2341.2 2324.3 2301.3 2282.4 2264.5 2247 2230.4 2214.1 2198.7 2185.1 2172.5 2160.6 2150.1 2140.2 2120.8 2100.5 2083.8 2072.2 2062.4 2052.4 2047.3 2051.1 2055.8 2059.2 2033.9 2006.4 1991 1983.3 1962.8 1939.7 1924.2 1909.6 1896.6 1884.8 1876.2 1867.2 1859.5 1853.5 1845.9 1833.7 1820.9 1816.4 1812.1 1808 1802.7 1797.9 1792.7 1787.4 1783.3 1778.3 1773.4 1769.7 1765.9 1762.7 1759.3 1756.9 1754.2 1751.4 1745.6 1742.6 1738.6 1734.8 1735.1 1731.8 1728.6 1727 1725.6 1720.7 1716.6 1711.9 1708.6 1705.9 1702.4 1701 1701.6 1698 1692.6 1686.7 1682.8 1680.5 1677.2 1673.4 1670.6 1667 1664.4 1662.8 1660 1658.2 1654.9 1653.3 1653.1 1649.6 1639.7 1633.4 1631 1631.7 1630.9 1624.3 1623.7 1619.8 1618.6 1614.9 1610.6 1608.2 1605.5 1602.7 1601.5 1597.7 1592.2 1589.8 1588 1584.7 1579.9 1572.7 1572.9 1574.6 1573.5 1566 1561.4 1557.9 1551.5 1546.8 1544.7 1541 1537.6 1533.5 1529.2 1525.1 1522 1517.3 1511.4 1506.2
2403.2 2410.8 2418.1 2427.5 2438 2446.6 2450.8 2456.7 2463.1 2469.7 2479.1 2488.5 2493 2503.1 2509.9 2514.3 2518.8 2525 2532.5 2541.4 2552.8 2563.2 2573.1 2582.4 2590.3 2598.7 2607.1 2614.8 2623.7 2634.9 2645 2652.4 2659.5 2665.7 2670.2 2675.3 2678.8 2683.3 2687.8 2693.6 2698.2 2703.8 2707.6 2709 2709.4 2710.2 2709 2710.1 2711.2 2710.4 2710.6 2709.4 2708.1 2708.1 2707.3 2708.8 2710.8 2714 2719.3 2722.8 2727.8 2732 2744.9 2760.3 2767 2770.6 2770.7 2770.5 2769.8 2766 2754.6 2748.5 2748.5 2746.6 2744.4 2743.1 2741.6 2740.2 2738.3 2737.2 2736.7 2736.2 2735.2 2728.1 2724.6 2721.9 2720 2717.2 2716 2715.6 2714 2710.7 2707.3 2705.2 2702.4 2701.9 2698.3 2685.7 2667.1 2649.3 2628.1 2607.3 2585.1 2566.7 2550.7 2538 2522.1 2511.1 2494.8 2469 2447.9 2428.9 2412.6 2396.3 2374.6 2354.4 2333.3 2314.8 2295.2 2276.2 2257.2 2239.1 2222.1 2205.7 2189.3 2174.6 2161.4 2149.1 2138 2127.2 2121 2100 2075.4 2061 2051.2 2042.9 2034.3 2032.2 2035.3 2045.1 2030.5 2002.5 1975.3 1963.8 1956.5 1934.6 1919.9 1903.4 1887.1 1875 1863.2 1855.4 1851.6 1843.3 1835.5 1827.2 1819.3 1813.3 1809.4 1805.3 1801.2 1796.1 1791 1784.3 1781.3 1776.4 1771.6 1768.7 1765 1762 1758.7 1756.2 1753.6 1749.9 1746 1742.2 1737.7 1734.1 1731.6 1728.9 1726.1 1725 1722.5 1719.5 1714.3 1712.2 1709.6 1702.8 1701 1695.9 1691.4 1693.8 1689.2 1683.9 1680.2 1677.5 1674.3 1672.4 1670 1667.2 1663.7 1661 1657.8 1655.3 1649.9 1649.2 1652.5 1648 1640.5 1632 1629.2 1628.6 1627.9 1623.7 1619.2 1616 1612.4 1611 1607.4 1605.2 1602.5 1599.7 1596.6 1594.5 1593.7 1589.6 1587.2 1583.5 1579.2 1577 1571.3 1567.6 1565.4 1560.6 1555.7 1550.9 1543 1541.1 1538.9 1537.3 1533.8 1532 1530.4 1525.6 1521 1517 1510.3 1504
2398.5 2406.1 2414.1 2421.8 2429.2 2434.7 2438.6 2446.7 2454 2462.6 2471.7 2476.3 2484.3 2493.8 2500.8 2503.8 2510.9 2518.4 2528.6 2538.5 2549.9 2559.9 2569.3 2576.3 2584 2592.2 2600.8 2608.1 2617 2626.9 2635.6 2643.6 2650.7 2656.5 2661.3 2665.8 2669.9 2674.2 2678.4 2683.4 2690 2695 2698.3 2699 2700.2 2699.1 2700.3 2699.8 2701.5 2701.9 2702.3 2701.4 2700.9 2700.5 2701.4 2703.9 2705.5 2707.8 2712.9 2714.1 2718 2722.7 2737.7 2753.2 2759.8 2760.3 2762.9 2763.3 2763 2756 2745.6 2742.3 2743.3 2742.8 2740.4 2737.1 2735.4 2734.2 2732.8 2731.1 2730.4 2731.2 2733.2 2728.4 2721 2716.9 2714.7 2712.5 2710.9 2709.7 2708.5 2707 2704.3 2700.8 2697.5 2696.4 2692 2670.4 2651.3 2634 2613.3 2595.9 2580.7 2559.4 2540 2524.9 2510.4 2495.7 2486.3 2470.4 2444.7 2423.6 2404.2 2386.9 2370.8 2351.6 2331 2309.6 2288.6 2270.1 2251 2233.2 2216 2198.6 2181.7 2165.6 2150.8 2137.9 2125.7 2114.7 2104.8 2095.1 2071.8 2050.7 2038.9 2029.8 2021.4 2017.7 2017.9 2026.4 2009 1989.5 1965.9 1943.9 1935.3 1917 1900.5 1888.2 1877.5 1864.3 1854.5 1846.1 1840.3 1832.5 1825.5 1819 1816.8 1810.9 1805.4 1801.5 1798.9 1795.2 1790.3 1783.9 1777.8 1773.8 1769.8 1765.8 1764 1760.7 1757.2 1754.2 1750.9 1747.7 1743.8 1740.1 1733.8 1729.6 1728.6 1726.8 1723.4 1721.9 1720.2 1716.5 1712.5 1708.2 1706.3 1704.7 1698.2 1694.2 1690.1 1686.9 1682.4 1679.5 1678.8 1675.5 1673.4 1671.2 1668.8 1666.2 1662.1 1659.2 1656.7 1653.8 1650.2 1645 1645.3 1642.7 1639.5 1634.8 1632.1 1632.2 1630.1 1626.8 1623 1619.2 1611.5 1605.9 1605.9 1603.5 1600.4 1597.3 1593.5 1590.4 1586.1 1584.7 1586.5 1582.1 1577.3 1573.1 1568.3 1562.3 1557.7 1553.7 1548.8 1545.2 1542.1 1538.9 1534.6 1530.9 1525.8 1524.7 1526.3 1519.1 1513 1507.3 1502.3 1499.7
2392.9 2400.2 2406.1 2412.2 2419.3 2425.2 2432.9 2440.1 2447.8 2454.5 2459.1 2466.8 2477.1 2483.3 2487.5 2495.7 2505.2 2514.9 2524.9 2535.3 2545.3 2554.1 2561.6 2568.9 2577.5 2585.8 2593.2 2601.1 2609.1 2617.9 2626.6 2635.2 2642.3 2649.3 2652.7 2657.2 2661 2664.8 2669.8 2674.9 2682.5 2685.9 2688.4 2689.8 2689.3 2690.3 2690.6 2691.7 2692.7 2694.1 2694.5 2694.3 2693.6 2693.8 2695.3 2698.7 2699.3 2702.7 2706.3 2707.6 2710.4 2713.4 2730 2746.9 2756.1 2756.7 2756.7 2757.5 2756.1 2745.4 2737.1 2735.4 2738.6 2737.9 2734.5 2731.5 2729.5 2727.3 2725.8 2726.6 2725.2 2723.3 2726.8 2725 2719.1 2714.2 2710.4 2708.6 2705.9 2705.4 2704.6 2703 2700.1 2696.9 2694 2690.8 2682.9 2659.2 2638.2 2623.1 2601.5 2580.8 2566.7 2553.7 2538.1 2515.6 2499.5 2483.9 2473.7 2462.9 2447.4 2422.5 2401.6 2382.1 2363.5 2345.3 2325.9 2305.6 2285.1 2265.6 2244.8 2226.9 2209.3 2192 2175.1 2158.5 2142.3 2127.7 2114.7 2102.8 2092 2081 2067 2043.2 2028.2 2018.4 2010.3 2004.4 2003.3 2010 2004.5 1980.6 1954.7 1931.4 1912.5 1896.9 1873.8 1859.9 1862.2 1855 1842.8 1835.7 1826.6 1819.3 1814.7 1812.2 1810.6 1805.6 1801.6 1797.4 1793.8 1789.9 1787.6 1781.2 1776.1 1771.4 1766.8 1764.7 1761.2 1759.1 1755.1 1752.2 1748.8 1744.8 1741.6 1736.9 1732.1 1727.1 1725 1722.5 1721.3 1718.4 1715.3 1712.6 1709.6 1706.7 1700.7 1700.4 1697.9 1693.5 1689.3 1685.9 1683.6 1679.1 1675 1672.4 1671.2 1669.4 1668.6 1667.3 1663.2 1658.4 1655.4 1651.6 1648 1645.4 1641.8 1641.5 1639.6 1636 1632.1 1630.2 1629 1628.3 1625.4 1622.3 1616.9 1611.3 1607.5 1608.3 1606.8 1602.1 1591.8 1589.3 1583.7 1579.4 1575.1 1573.7 1570.1 1569.6 1564.6 1560.6 1554.9 1552.6 1550.2 1547.3 1543.5 1538.2 1536.6 1532.6 1527.6 1522.9 1519.2 1514.7 1507.8 1504.2 1498.4 1492.9
2385.9 2391 2397.2 2405 2412.5 2420.3 2427.7 2436 2441.5 2446.2 2452.9 2460.3 2465.5 2471.1 2480.3 2490 2500 2509.6 2520.4 2530.3 2539 2546.6 2554.3 2562.6 2570.5 2578.1 2585.5 2592.9 2601 2610.6 2620.3 2626.7 2634.1 2639.6 2643.7 2647.9 2652.6 2656.7 2661.5 2667.4 2673.7 2676.7 2679.3 2680.2 2680.4 2680.9 2682.3 2684.1 2686.3 2686.2 2686.4 2687.2 2686.5 2687 2689.6 2692.2 2693.4 2696.2 2699.6 2700.1 2702.8 2707.3 2722.7 2738.6 2748.9 2753.2 2754.4 2752.4 2744.6 2735.6 2730.1 2731.6 2734 2731.9 2728.1 2725.2 2723.1 2720 2718.8 2719.5 2720.7 2720.1 2720.4 2720.7 2717.6 2713.3 2707.9 2704.1 2702.5 2700.9 2700.3 2700.4 2697.5 2694.2 2690 2687 2673.8 2647.1 2627.1 2611.1 2590.3 2569.7 2554.7 2542.3 2529.5 2510.6 2489.4 2473 2461.5 2452.5 2437.5 2428.4 2403.5 2380.7 2360.5 2342.7 2325.9 2305.5 2285.7 2264.3 2242.9 2221.4 2202.2 2184.9 2167.7 2151.2 2134.9 2119.4 2105 2092.1 2080.1 2068 2053.9 2036.1 2020.3 2008.4 1999.1 1992.7 1989.2 1992.6 2000.9 1984.2 1966.2 1945.4 1924.6 1898.9 1872.9 1846 1834.5 1830.5 1830.7 1824.9 1815.5 1807.1 1803.8 1805.2 1802.7 1798.5 1794.2 1791.7 1788.4 1785.2 1782.8 1778.6 1774.3 1769.7 1765.6 1762.1 1758.8 1756.3 1752.4 1749 1745.4 1740.7 1738.9 1735.6 1731 1726.4 1722.7 1721.3 1719.1 1717.3 1714.6 1710.8 1707.7 1703.7 1699.8 1696.9 1695.7 1693.3 1689.4 1684.9 1682.6 1678.9 1672.9 1667.9 1666.4 1667.9 1668.1 1666.1 1663.3 1660.5 1655.8 1651.8 1647.2 1645.9 1641.4 1639.4 1638.6 1637.3 1633.5 1629.2 1627.7 1625.7 1623.5 1619.2 1615.1 1611.1 1608.1 1607.5 1608 1604.5 1599.1 1588.7 1582.9 1579.4 1575.7 1572.5 1566.7 1562.2 1561.4 1562.2 1556 1551.8 1548.7 1546.1 1542.8 1539.8 1537.9 1535.2 1530.9 1524.4 1517.3 1512.4 1507.6 1503.1 1498 1493
2376.2 2382.3 2392.3 2402.1 2408.9 2416.1 2422.7 2429.8 2435.5 2442.3 2446.3 2450.2 2456.3 2464.9 2475.8 2485.3 2496.1 2506.5 2515.7 2524.5 2532.2 2539.7 2547.2 2555.1 2563.3 2570.2 2578.1 2585.3 2594.5 2604.2 2611.7 2618.3 2624.7 2630.3 2634.5 2639.8 2644.4 2649.4 2656.2 2661.3 2664.8 2668.7 2670.4 2671.4 2671.9 2672.1 2673.8 2677.1 2679 2679.6 2679.2 2679.5 2679.9 2680.1 2683.5 2686.4 2686.2 2690.1 2694 2696.3 2698.1 2702.8 2715.4 2730.1 2743.7 2751.4 2752.5 2745.9 2734.7 2729.3 2727.3 2728.2 2729.9 2727.2 2722.2 2720.2 2717.3 2714.8 2713 2714.8 2715.1 2715.4 2715.3 2715.1 2713.4 2710.4 2706.1 2701.4 2698.3 2696.6 2695.7 2695.2 2694.5 2691.7 2687.9 2683.5 2669.7 2638.5 2615.1 2598.5 2578 2560.4 2546.3 2533 2522.2 2510.5 2489.8 2464.2 2446.3 2437.4 2420.7 2411.6 2415.2 2381.6 2358.8 2338.7 2319.2 2303 2280.4 2259.4 2238.3 2217.2 2197.2 2177.6 2159.6 2143.2 2126.9 2111.4 2096.2 2082.2 2069.6 2058.1 2045.8 2030.4 2014.8 2001.2 1989.9 1982 1976.4 1974.9 1976 1971.7 1962.6 1943.2 1925.9 1907.7 1889 1846.8 1827.4 1813.8 1819.5 1815.6 1805.2 1802.2 1794.6 1795.8 1794.6 1791.9 1788.7 1787.1 1784.2 1781.3 1779.8 1776.1 1771.3 1767 1765.3 1763.7 1759 1753.8 1749.9 1745.3 1742.8 1739.6 1736.3 1732.9 1729.1 1725.2 1721.4 1719.1 1717.9 1714.9 1712.9 1709.5 1705.2 1700.9 1698.5 1695.8 1694 1691.4 1688.4 1683.5 1679.4 1675.2 1671.5 1666.7 1664 1664.8 1666.5 1665 1660.6 1658.3 1656 1652.3 1651.3 1645.6 1643.9 1640.3 1637.9 1636.6 1634.9 1629.9 1625.6 1623.8 1622.2 1619.3 1615.1 1613 1609.3 1606.5 1604.2 1606.3 1601.2 1591 1582.7 1579 1576 1570.8 1565.2 1561.4 1558.4 1554.5 1549.6 1545.7 1543.6 1542.8 1538.9 1536.3 1536 1533.4 1529.4 1521.7 1515.2 1512.5 1507.6 1503 1497.3 1491.7
2369 2378.4 2390.7 2400 2404.3 2410.7 2417.3 2424.9 2430 2433.3 2437 2443.5 2449.8 2459.1 2470.4 2482.7 2493.3 2503.7 2510.5 2518.8 2526 2533.1 2540.4 2548.2 2555 2561.8 2570.1 2579.2 2588.8 2597.9 2603.2 2609.9 2615.7 2620.9 2625.9 2631.2 2636.7 2643.4 2650 2654.1 2657.3 2660.4 2662.8 2663.8 2663.1 2664.7 2666.7 2670 2671.9 2671.9 2673.9 2672.5 2672.7 2675 2677.6 2680.3 2681.8 2682.3 2687.8 2689.9 2693.4 2696.5 2706.7 2719.4 2734.7 2744 2743.2 2734.9 2729.2 2725.2 2723.4 2724 2724.6 2722.1 2717.7 2715.1 2712.6 2709.9 2709.2 2709.5 2709.7 2710.2 2710.1 2710.2 2708.9 2706.1 2702.5 2698.3 2695.4 2692.4 2691.1 2690.1 2690.3 2689.9 2687.6 2682.2 2669.4 2636.5 2607.5 2585.7 2567.7 2551.1 2537 2525 2515.7 2502.6 2497.2 2462.3 2430.9 2418.2 2405.6 2392.8 2396.3 2374 2348.7 2326.1 2304.9 2292.4 2282.9 2259.1 2236 2213.5 2192.3 2171.8 2151.6 2135 2118.5 2102.8 2087.6 2073.2 2059.7 2047 2035.4 2023 2008.1 1994.2 1982.1 1972.6 1965.6 1960.2 1954.4 1949.2 1945.8 1938 1925.8 1907.8 1890.9 1869 1837.7 1814.5 1813.6 1805.2 1798.7 1796.4 1789.4 1786.8 1787 1786.4 1785.7 1785.7 1781.6 1777.1 1775.5 1773 1767.3 1764.1 1762.5 1761.2 1758.1 1754.5 1748.8 1745.1 1742.6 1738.5 1734.8 1731.7 1729.4 1725.7 1723.7 1720.7 1716.5 1713.6 1710.6 1707.4 1703.5 1698.9 1696.1 1693.9 1691.9 1689.1 1687.1 1683 1678.6 1675.5 1670.7 1668.4 1663.7 1660.5 1661.4 1661.1 1659.8 1656.6 1653.9 1648.9 1646.1 1642.5 1642.7 1640.9 1639.5 1638.8 1634.7 1631 1628.7 1624.5 1622.5 1619.2 1614.7 1615.1 1612.7 1609.1 1603.4 1600.2 1600.8 1595.1 1582.8 1578.5 1574 1568.4 1563.8 1561 1556.6 1552.2 1547.3 1544 1541.7 1539.2 1534.7 1530.1 1529 1530.3 1528.7 1524 1516.9 1509.4 1505.9 1500.4 1495 1490.3
2362.8 2374.9 2387.1 2394.7 2399.1 2406.1 2412.8 2418.5 2421.6 2425.5 2431.4 2437.2 2445.4 2456 2468.4 2479.5 2489.1 2498.1 2504.4 2511.9 2519.4 2525.8 2533.8 2540.5 2546.8 2553.9 2563.2 2572.7 2581.8 2588.2 2595.1 2601.8 2606.7 2612.1 2617.7 2623.2 2628.3 2635.4 2642.1 2645.5 2649.3 2651.9 2654.7 2656.2 2656.5 2656.6 2659.8 2662.3 2665.2 2666.4 2666.7 2666.2 2667.3 2670 2672.5 2674.3 2674.2 2678.1 2683 2685.6 2688.9 2690.5 2696 2709.2 2721.2 2733.6 2731.3 2723.1 2724.2 2721.8 2716.8 2716 2716 2715.7 2712.5 2710.6 2707.5 2705.6 2703.9 2705.2 2705 2705.1 2705.8 2706 2704.2 2702 2698.1 2693.8 2690.3 2688 2686.3 2684.7 2685.7 2686.2 2684.3 2680.4 2658.5 2634.8 2608.6 2579.1 2559.9 2542.5 2528.3 2515.4 2501 2478.4 2461.4 2451.2 2429.9 2401.9 2387.8 2376.7 2371.4 2361.7 2337 2315.9 2294.1 2276.2 2264.6 2258.3 2234.7 2208.7 2188.8 2171.5 2150.1 2128.1 2108.8 2093.3 2078.5 2064.1 2050.2 2037.2 2024.8 2012.8 2000.6 1986 1973.5 1963.2 1955.3 1949.3 1941.4 1933.2 1924.9 1917.6 1907.4 1889.2 1876.9 1855.8 1832.8 1814.6 1806.4 1801.4 1793.4 1788.3 1783.7 1779.4 1780.2 1781 1783 1784.3 1780.6 1774.9 1770.5 1768.4 1764.3 1760.2 1757.4 1756.2 1755.1 1752.5 1747.6 1744.2 1740.4 1737.4 1733.6 1730.4 1729.1 1726.4 1723.3 1720.9 1717 1714.6 1711.4 1708.1 1705.9 1701 1696.1 1692 1688.7 1687 1684.7 1681 1677.7 1675.3 1671.7 1668.8 1664.2 1660.5 1657.6 1656.5 1654.2 1652.5 1650.2 1646 1641.2 1638.8 1638.7 1639.4 1637.8 1632.7 1627.7 1624.1 1623 1616.8 1617.5 1615.5 1613.9 1613.4 1608.8 1606.7 1606.2 1603.9 1596.5 1594.7 1589.9 1578.5 1571.4 1566.6 1564 1560.8 1555.1 1552.2 1545.7 1542 1539.8 1536.2 1530.1 1526.2 1523.6 1524.2 1524.3 1521.2 1513.2 1506.7 1501.7 1497.2 1492.5 1489.5
2362.6 2372.5 2381.8 2389.1 2395.2 2402.2 2405.9 2409.9 2413.9 2420.2 2426.5 2433.3 2443 2453.5 2464.6 2474.8 2483.3 2490.5 2498 2505.2 2512.1 2518.3 2525.5 2532.3 2539.1 2548.1 2557.4 2566 2573.1 2580.5 2587.2 2593 2598.1 2603.8 2609.4 2614.8 2622.2 2626.6 2632.6 2636.9 2640.8 2643.8 2646.7 2647.3 2649.2 2650.2 2653.7 2655.2 2657.7 2659.7 2661.1 2660.7 2663.2 2665.7 2667.6 2669.3 2671 2672.1 2675.8 2680.5 2681.5 2685.6 2687.2 2698.9 2711 2719 2718.8 2716.6 2720.8 2721.8 2714.5 2709.3 2707.6 2706.3 2705 2705.4 2703 2700.1 2699.4 2700.1 2700.1 2701.5 2701.7 2701 2698.7 2698.5 2696.4 2690 2685.2 2682.7 2680.7 2679.3 2680.1 2681.6 2679.6 2674 2656 2626.1 2607.1 2579.4 2555.6 2534.7 2517.8 2501.4 2483.2 2459.5 2439.3 2429.3 2423.9 2391.2 2374.1 2360.1 2350.4 2337.2 2323.9 2305.2 2285 2264.7 2248.6 2238.9 2221.3 2199.2 2178.4 2158.5 2139.6 2116.3 2098.8 2082.9 2068.3 2054.2 2040.6 2027.4 2014.7 2002.5 1990.6 1979 1965.1 1953.5 1944.6 1936.8 1929.2 1923.6 1918.7 1903.9 1889.6 1876 1860 1843.9 1827.1 1812.1 1797.7 1791.2 1786.5 1780 1776.2 1773.5 1773 1776 1778.8 1778.6 1776.3 1771.8 1768.7 1764.4 1761.3 1757 1753.4 1754 1752.8 1749.8 1747.7 1744.2 1741 1735 1730.5 1728.6 1727.9 1725.8 1722.7 1720.5 1717.9 1713 1710.7 1708.2 1705.5 1700.4 1697 1692.5 1687.6 1685.3 1682.7 1679.3 1677.5 1674.2 1670.9 1667.3 1663 1658.9 1655.6 1654.2 1651.2 1647.7 1643 1642.1 1638.7 1636 1634.7 1636.3 1635.5 1631.7 1626.8 1620.4 1616.8 1612.5 1607.9 1605.7 1603.8 1604.3 1606.9 1607.1 1607.2 1605.8 1598.7 1590.4 1587.1 1585.3 1578.2 1571.6 1564.8 1560.7 1556.6 1552.2 1546.1 1540.6 1538.4 1535.9 1532.1 1527.4 1523.7 1519.9 1518.3 1516.8 1511.3 1505.6 1501.6 1496.1 1490.5 1486.9
2361.4 2370 2377.5 2384 2389.3 2394.3 2398.6 2403.3 2408.9 2415.4 2422.7 2430.9 2440.5 2449.9 2458.8 2469 2477 2485 2491.4 2497.8 2504.5 2510.9 2517.8 2524.4 2533.5 2542.4 2550.3 2557.6 2565.3 2572.6 2579.3 2584.9 2590.1 2596.6 2602.6 2607.4 2614.3 2618.2 2623.3 2628 2632.2 2634.6 2638.8 2640.3 2642.7 2643.9 2646.8 2649.4 2651.2 2653.1 2655.3 2658.2 2660.7 2662.5 2662.7 2663 2663.6 2667 2670.4 2674 2674.8 2678.8 2681.3 2695 2700.7 2708.7 2709.8 2711.2 2714.7 2713.6 2706.4 2705.3 2702.4 2699.9 2698.7 2698.8 2698.3 2697.5 2695.8 2695 2696.1 2697.8 2698 2696.5 2693.8 2692.9 2691 2685.5 2680 2675.4 2671.5 2671.7 2674.2 2675.7 2674.4 2666.3 2647.2 2622.9 2595.5 2576.6 2555.4 2532 2509.1 2489 2466.7 2445.6 2424.7 2409.9 2407.1 2378.7 2359.7 2346.4 2333.3 2320.9 2307.1 2292.9 2276.2 2260.6 2234.8 2220.7 2208.9 2188.9 2169.9 2149.5 2130.8 2111.2 2091.6 2074.4 2058.5 2044.3 2030.7 2017.6 2004.8 1992.4 1980.6 1968.7 1956.9 1944.3 1933.7 1925 1916.9 1911.7 1907.5 1897.2 1884.1 1868.9 1854.7 1840.7 1827.3 1815 1803.2 1788.5 1784.5 1777.7 1773.1 1770.3 1768.2 1770.9 1774.9 1772.8 1771.5 1767 1764.5 1760.9 1757.3 1753.9 1751 1749.3 1748.6 1747.1 1746 1741.3 1740.3 1734.7 1730.2 1729.5 1726 1723.5 1721.2 1717.7 1715.1 1710.9 1708.2 1703.8 1701.6 1697.8 1694.8 1691.7 1688 1685.4 1683 1679.1 1676 1673.5 1670.5 1667 1663.3 1658.3 1655.6 1652 1650.7 1646.4 1639.8 1636.8 1635.6 1633.3 1630.6 1632.1 1632.2 1628.9 1626.6 1619.9 1614.2 1609.7 1605.3 1602.5 1600.3 1596.4 1594.8 1597 1601.5 1601.3 1596.4 1588.8 1585.5 1583.3 1580.2 1576.3 1575 1567 1558.5 1553 1548.9 1545.1 1543.3 1541.3 1537.5 1531.7 1525.7 1524 1519.5 1518.5 1515.1 1510.1 1503.1 1496.4 1490.7 1486.5
2358.8 2366.7 2372.6 2376.9 2380.7 2387 2393.6 2399.8 2405.8 2412.2 2420.4 2429.6 2438.5 2446.1 2454.8 2463.9 2471.3 2477.9 2483.7 2490.4 2496.3 2504 2510.8 2518 2527.3 2535.8 2542.4 2549.7 2557.2 2564.6 2571.2 2576.6 2583.3 2590 2595.7 2600.6 2605.3 2608.6 2612.7 2617.8 2623.1 2626.5 2631 2634.4 2636.7 2637.2 2640.7 2642.5 2645 2647.7 2651.2 2655.2 2658.1 2658.9 2657.9 2660 2661.4 2662.5 2663 2666 2669.6 2676.1 2679 2684.5 2688.7 2696.8 2700 2702.5 2704.2 2704.4 2699.4 2699.9 2697.6 2694.9 2692.2 2693.5 2693.8 2694.7 2691.5 2691.1 2691.7 2694.2 2694.9 2693.5 2689.6 2687 2684.4 2680.1 2670 2662.4 2653.5 2655.3 2663.6 2668.8 2669 2664.4 2643.3 2620.5 2592.6 2566.8 2545.5 2526 2498.3 2477.9 2458.9 2443.2 2417.7 2398 2382 2366.9 2348.9 2332.3 2319.9 2306.1 2292 2279.4 2262.8 2245.1 2220.6 2205.2 2192.9 2176.5 2155.5 2138.4 2121.9 2105.9 2087 2068 2050.2 2034.2 2020.6 2007.3 1994.7 1982.1 1970.2 1958.7 1947.2 1935.6 1924.7 1914.7 1905.7 1898.6 1892.6 1884.9 1875.1 1863.9 1850.3 1838.3 1826.1 1814.2 1805.2 1791 1780.7 1773.8 1770.1 1768.4 1766.2 1766.5 1768 1767.8 1766.4 1763.3 1760.8 1756.8 1753.4 1751 1749.4 1747.2 1744.4 1744.4 1742.8 1738.7 1736 1732.3 1729.6 1729.1 1726.6 1723.1 1720.2 1718.5 1714.1 1710.2 1706.6 1702.7 1698 1694.3 1693.7 1692 1687.4 1683.8 1680.9 1679.1 1675.8 1673.6 1669.7 1666.1 1662.7 1659.2 1656 1650.7 1647.4 1644.3 1638.9 1635.5 1632.8 1630.9 1627.8 1625.5 1626.8 1626.3 1620.7 1618 1612.5 1608.8 1604.7 1602.6 1596.5 1592.5 1591.8 1589.8 1591 1588.2 1592.7 1586.6 1579.7 1583.2 1583.1 1576.5 1573.6 1572.3 1568.4 1560.4 1556 1549.5 1545.4 1539.8 1534.1 1530.3 1527.3 1524.8 1521.6 1518.7 1515.9 1512.1 1509 1502.2 1495.2 1491
2353.4 2359.5 2363.7 2368.8 2375.9 2383.7 2389.9 2396.2 2402.5 2409.3 2417.9 2426.5 2434.8 2442.1 2449.5 2456.9 2463.4 2469.5 2475.9 2482.3 2489.6 2497.6 2503.9 2511.4 2521.1 2527.6 2534.2 2542 2549.1 2556.8 2563.6 2569.5 2577.6 2584.3 2588.4 2592.5 2596.2 2600.2 2604.5 2608.2 2613.4 2618.1 2622.7 2628 2628.7 2630.6 2633.9 2635.7 2638.9 2644.2 2648.1 2653 2655.1 2655 2655.7 2657.3 2655.9 2656.9 2658 2666 2670.3 2671.9 2674.6 2678 2679.6 2684.6 2690.3 2692.6 2694.3 2696.9 2691.4 2691.3 2692.1 2690 2687.1 2688.1 2686.9 2688 2686 2685.3 2687.2 2689.9 2690 2689.3 2686.3 2683.3 2680.6 2673.3 2658.8 2649.6 2643.1 2641.6 2648.3 2661.8 2663.2 2660.8 2651.6 2628.7 2603 2565.7 2533.2 2504.6 2486.2 2467 2449.2 2432.3 2413.9 2391.5 2371.8 2355.2 2338.3 2321.4 2306.6 2293.2 2278.8 2264.5 2252.6 2238.4 2212.4 2192.7 2177.2 2162.6 2146.3 2127.4 2109.4 2094.5 2082.2 2067.8 2046 2025.5 2010.4 1997.4 1984.6 1972.1 1960.3 1948.7 1937.4 1926.5 1915.9 1905.3 1896 1887.5 1880 1872.7 1864.9 1855.2 1843.6 1831.2 1819.2 1807.7 1798.5 1788.1 1776.8 1771.1 1768.1 1767 1764 1762.9 1763.6 1765.4 1761.7 1758.8 1757.7 1753.9 1750.3 1748.3 1746.4 1743.9 1742.4 1740.5 1737.7 1734.6 1732.6 1727.8 1726.5 1727 1724.6 1720.1 1717.2 1715.4 1711.9 1708.1 1706.3 1701.3 1698.2 1693.9 1690 1689.7 1687.3 1682.9 1680.5 1677 1674.7 1672.9 1670.3 1663.9 1659.4 1657.3 1654.5 1650.6 1646.3 1643.5 1639.2 1634.1 1632 1629.3 1627 1623.1 1621.4 1621.9 1617.8 1614.5 1610.7 1606.3 1603.7 1600.3 1596.4 1592.4 1590.8 1587.3 1582.4 1580.3 1582.3 1579.4 1574.6 1572.1 1569.6 1567.7 1571.2 1571.6 1569.6 1561.5 1555.7 1551 1545.7 1540.2 1534.4 1529.6 1528 1525.7 1523.1 1521.1 1517.6 1512.2 1506.1 1501.8 1499.2 1494.4
2345.8 2352 2357.3 2364.6 2371.8 2379.4 2385.4 2392.5 2399.3 2405.7 2413.8 2423.6 2432 2438.1 2442.9 2449.6 2456.5 2461.4 2468.2 2475.2 2483.9 2490.9 2497.2 2505.1 2512.7 2519.4 2526.3 2534.1 2541.4 2548.2 2555.1 2562.7 2571.6 2578 2582.8 2585.6 2588.6 2592.4 2595.7 2600.6 2604.1 2609.1 2615.4 2619.6 2621.7 2624.4 2626.3 2629.9 2635.3 2639.7 2643.6 2647.8 2649.2 2649.7 2651 2652.6 2650.8 2655.6 2660.8 2663.1 2665.6 2667.7 2672.5 2670.4 2672.8 2677.9 2683.6 2686 2689.9 2689.8 2685 2684.2 2685.2 2683.7 2681.3 2682.7 2682.2 2681.7 2680.3 2680.4 2681.3 2683.4 2682.7 2683.2 2680.8 2678.4 2677.5 2670.5 2650 2642.1 2635.3 2634.5 2638.4 2654.6 2657.4 2654.8 2652.3 2635.2 2609.5 2577.6 2528.6 2501 2475.5 2457.4 2439.6 2424.8 2407.5 2389.5 2367.4 2346.2 2329.4 2312.7 2295.9 2280.5 2266 2252.1 2238.6 2226 2207.1 2183.8 2165.7 2149.7 2133.8 2122.8 2103.4 2082 2067.5 2054.7 2039.5 2019.4 2002.4 1987.4 1974.7 1962.4 1950.6 1938.8 1927.5 1916.7 1906.3 1896.3 1886.6 1877.6 1869.7 1862.9 1853.7 1844.4 1835.4 1825.1 1810.9 1800.9 1790.6 1779.9 1772.7 1768.5 1765.5 1764.3 1762.5 1761.1 1761.3 1761.3 1757.6 1755.4 1754.1 1751 1749 1745.7 1743.8 1742.1 1739.6 1736.4 1733.9 1732.8 1730.2 1727.5 1725.9 1723.8 1723.6 1718.4 1716.2 1713.6 1711.3 1707.3 1704.9 1701.8 1697 1694.2 1689.8 1687.6 1685 1682.6 1678.5 1675.3 1672.6 1671.4 1668.5 1663.5 1658.7 1653.2 1651.6 1650.2 1646 1641.8 1638 1633.5 1630.4 1627.5 1625.7 1621 1619.4 1618.2 1615.8 1612.7 1610.9 1607.4 1605.1 1599.6 1598.5 1594.1 1590.9 1588.9 1583.2 1578.3 1577.3 1576.3 1574.2 1571 1566.4 1564.5 1563.7 1566.1 1564.5 1560.2 1554.8 1550.1 1543.9 1538.3 1532.3 1527.9 1524.4 1520.9 1520.7 1516.1 1513 1509.1 1505.6 1501.9 1499.4 1495.3
2341 2348.5 2355.4 2361.9 2368.4 2374.3 2380.9 2388.8 2394.1 2400.3 2408.7 2418 2425.6 2431.2 2435.1 2441.3 2448.2 2454.1 2461.2 2468.8 2477.4 2484 2491.1 2498.7 2505.5 2511.2 2518.8 2527.2 2534.2 2540.6 2549.4 2557.2 2565.8 2572.4 2575.7 2578.8 2581.4 2584.7 2588 2592.6 2596.7 2601.9 2607.6 2611.7 2615.8 2617.3 2619.9 2624.9 2628.9 2631.9 2636.8 2637.8 2639.2 2642.2 2646.3 2644.9 2650.2 2653.3 2656.8 2656.8 2658.9 2664.7 2664.8 2665.8 2666.8 2667.8 2674.8 2680.1 2683.1 2684.3 2680.7 2678.8 2679.9 2678.5 2677 2678 2677.5 2676.4 2675.2 2675.2 2675.1 2677 2676.6 2675.3 2674.2 2673 2672.5 2668.6 2650 2635.1 2621.5 2627.7 2635.5 2650 2649.9 2644 2633.6 2627 2608.2 2575.7 2522.1 2496.5 2468.8 2448.4 2429.1 2414.2 2397.7 2385.1 2365.7 2343.7 2320.7 2303.1 2286.8 2270.6 2254.6 2239.8 2226.6 2212.9 2198.4 2177.2 2156.4 2139.1 2122.9 2107.1 2104.5 2072 2055.4 2040.8 2025.5 2014.4 1997.9 1978.8 1965.2 1952.7 1940.9 1929.4 1918.2 1907.3 1897 1887.1 1877.8 1868.7 1859.8 1851.2 1841.6 1831.7 1823.4 1813.9 1803.9 1793.6 1784.2 1773.3 1770.2 1767 1764.5 1762.8 1762.5 1761.2 1760.1 1758.3 1755.2 1751.5 1750.1 1749.2 1747.4 1744 1741 1739.2 1737.2 1734.3 1731.8 1730.4 1729 1726.8 1724.4 1721.8 1720.9 1717.2 1715.3 1711.6 1709.4 1706.2 1702.6 1699.8 1697 1692.8 1688.9 1686.7 1685 1681.5 1677.4 1674.3 1671.5 1668.6 1664.9 1659.9 1656.1 1651.1 1648.8 1644.9 1642.4 1639.4 1637.4 1633.9 1631.4 1627.6 1623.3 1622.2 1619.7 1617.7 1615.3 1612.7 1610.2 1606.7 1605.4 1602.8 1600.3 1595.9 1593.1 1587.4 1582.2 1580.4 1578.8 1575.1 1571.6 1568.9 1566.6 1562.6 1560.9 1559.8 1560.2 1556.6 1553.3 1549.5 1545.2 1535.2 1529.3 1526.2 1524.1 1520.5 1515.2 1513.2 1510 1503.9 1498.6 1495.2 1492.8 1491
2338.3 2345.9 2353 2358.5 2364.1 2370.1 2376.8 2383.3 2388.5 2394 2401.1 2409.2 2416.2 2421.3 2426.6 2433.1 2440.3 2447.5 2455 2462.6 2470.2 2478 2485.7 2492.6 2498.3 2504.4 2511.4 2519.7 2527.8 2535 2542.8 2552.6 2561.1 2566.2 2568.8 2571.8 2574.9 2577.9 2582.1 2586.8 2591.5 2595.6 2600.3 2604.5 2608.3 2610.1 2613.8 2618 2621.7 2624.9 2627.6 2628 2632.3 2636.8 2637.3 2639.9 2646.4 2648.7 2649 2648.3 2653.4 2661.7 2660.7 2659.3 2658.3 2659.3 2667.1 2673.8 2676.8 2677.6 2676 2671.6 2672 2672.6 2672 2673.9 2673.1 2671.7 2672.3 2670.6 2669.5 2671.5 2671.7 2669.7 2668.4 2667.4 2667.5 2664.7 2649.7 2633.9 2617.8 2630 2639.4 2645.6 2642.8 2627.4 2615.3 2615.5 2607 2571.7 2510.8 2491.6 2475.2 2449.4 2422.2 2402.8 2386.8 2370.7 2357.8 2341.1 2320.4 2296 2276.7 2260.6 2244.9 2229.5 2214.9 2201.4 2186.8 2171.3 2151.1 2132.2 2114.4 2098.4 2083.4 2066.6 2050.3 2032.1 2015.9 2001.4 1987.5 1973.3 1956.3 1943.5 1931.8 1920.6 1909.4 1898.5 1888 1878.3 1869 1860 1851.3 1842 1832.7 1823.3 1814.4 1805.8 1797.2 1788.1 1778.9 1770 1768.2 1764.9 1762.7 1762.4 1762.4 1761.1 1760 1757.4 1754.2 1750.2 1747.8 1747.2 1746.3 1744 1741.6 1739 1736 1734.3 1731.8 1729 1726.8 1725.6 1723.1 1721.5 1719.3 1715.5 1713.1 1711.6 1708.7 1704.4 1703.3 1700.2 1696.2 1692.1 1688.7 1686.1 1684.8 1681.7 1679.5 1675.6 1670.2 1666.3 1662.4 1656.5 1652.4 1648.5 1644.4 1641.7 1638.6 1638.6 1637 1635.4 1632.8 1628.1 1625.4 1622.5 1621.7 1618.6 1616 1615.3 1611.6 1606.4 1603.8 1601.6 1600.2 1597.5 1593.1 1589.5 1585.6 1583.2 1579.5 1577 1572.8 1568.6 1564.8 1563.5 1561.5 1556.9 1550.9 1549.6 1549.8 1548.2 1545.4 1538.2 1531.1 1528.8 1524.8 1520.8 1515.1 1511.6 1507.6 1504 1500.7 1495.9 1493.4 1489.5
2335.6 2342.2 2348.5 2354 2359.5 2366 2372.4 2378 2382.4 2386.9 2393.6 2400.5 2406.7 2412.1 2418.6 2426.2 2434 2441.1 2448.1 2455.8 2464 2472 2479.7 2485.6 2491.8 2498.7 2506 2515.1 2523 2529.3 2537.8 2545.8 2553.9 2558.5 2560.8 2564.9 2568.3 2572 2576 2582.2 2585.1 2589.1 2593.7 2598.3 2601.6 2602.9 2606.8 2610.6 2615.3 2618.2 2620.3 2622.5 2628.4 2629.9 2631.2 2635.6 2639.7 2640.6 2640.5 2642.2 2648.8 2656 2655 2651.6 2652.2 2653.5 2662 2669.8 2673.5 2672.2 2671.1 2667.5 2664.2 2664.3 2666 2668.3 2668.4 2667.4 2667.2 2666.8 2664.5 2665.5 2665.9 2664.6 2663 2661.2 2660.8 2659.5 2652.5 2639.1 2626.5 2632.3 2640.7 2640.9 2634.6 2614.3 2582.4 2595.3 2579.9 2571.1 2508.3 2477.7 2455.3 2441.5 2425.3 2395.5 2376.9 2360.3 2344.1 2329.2 2310.6 2288.9 2267.9 2250.5 2235.1 2219.3 2204.5 2190.2 2176.4 2160.6 2145.4 2127.6 2110.4 2092.9 2077.5 2062.2 2047 2028.9 2012.1 1996 1980.9 1965.7 1950.8 1936.4 1924.6 1912.9 1901.8 1891 1880.4 1870.3 1861.4 1852.4 1844.4 1835.9 1827.2 1818.5 1810.3 1802.4 1794.2 1786.2 1778.8 1771.1 1767 1763.1 1762.2 1762 1762.2 1761.5 1759.5 1756.8 1753.8 1751.1 1748.7 1746.1 1745.3 1743.1 1741.6 1737.9 1735 1732 1729.8 1727.4 1724.4 1721.9 1720.4 1719.9 1718.2 1714.9 1712.1 1709.8 1708.5 1705.8 1702.8 1701.5 1697.5 1693.9 1691.3 1688 1686.6 1684.7 1682.4 1679.8 1672.2 1665.8 1660.3 1655.2 1650.9 1645.8 1641.1 1639.6 1638.7 1636 1634.4 1633 1631.5 1630.1 1626.7 1621.9 1620.7 1620.1 1617.8 1612.8 1610.4 1605.8 1602.9 1600.6 1598.5 1595.1 1593.4 1590.8 1586.7 1585.9 1582.8 1580.3 1574.8 1570.6 1567.5 1564.4 1562.3 1556.6 1550.1 1547 1542.1 1540.3 1541.5 1537.6 1534.1 1531 1527.1 1522.4 1517 1513 1510.1 1505.6 1501.2 1497.6 1494.4 1490.9
2332.2 2338.4 2343.6 2349 2355.1 2361.5 2366.9 2371.9 2375.3 2380.4 2386.1 2392.5 2398 2405.3 2413.3 2419.9 2427.6 2435 2441.5 2448.6 2456.9 2465 2472.4 2478.8 2486 2493.1 2501.9 2509.5 2517.3 2523.5 2532.5 2539.7 2544.7 2549.9 2553.3 2558.6 2562.2 2566.6 2571.7 2575.9 2579.7 2582.3 2587.1 2591.2 2593.3 2595.9 2600 2604.2 2608.7 2611.5 2613.3 2619.3 2621.4 2623.1 2627.7 2631.8 2635.2 2636.3 2634.9 2636.3 2644.8 2647.1 2645.2 2646.2 2648.2 2648.4 2655 2662.7 2669.9 2665.7 2664.7 2662.7 2660 2658 2659.9 2663.3 2661.9 2661.7 2661.8 2661.6 2659.2 2658.2 2659.1 2658.6 2658.4 2655.8 2655.1 2654.1 2650.9 2644 2638.4 2635.5 2635.5 2636.3 2633.8 2608.7 2576.1 2548.5 2542.9 2559 2512.4 2467.6 2445.1 2427 2409 2391.2 2370.4 2352.2 2334.7 2317.8 2300.8 2283.9 2263.8 2243.3 2225.8 2209.1 2194 2179.7 2165.5 2151.2 2136.9 2122.4 2105.9 2088.9 2073.1 2058.1 2042.9 2027.2 2011.4 1995.7 1979.1 1962.7 1947.2 1932 1918.5 1906 1895.7 1883.9 1873 1863.2 1854.7 1847.1 1839.3 1831.6 1823.3 1815.9 1808.6 1801.3 1793.1 1786.2 1778.9 1772.3 1767.3 1763.3 1762.1 1761.2 1761 1760 1757.3 1755.4 1752.1 1750.7 1749.3 1746.8 1743.2 1741.9 1739.5 1736.3 1733 1731.4 1729 1726.3 1723.6 1720.7 1718.2 1717.2 1715.4 1713.5 1710.7 1708.9 1705.7 1704.5 1702.8 1701.1 1698 1695.4 1691.6 1690.7 1689.3 1687.5 1684.4 1683.5 1675.3 1668 1660.5 1655 1650.7 1646.2 1640.5 1637 1637.6 1636.5 1634.3 1632.1 1630.4 1628.1 1626.3 1623.5 1622.3 1618.7 1614.4 1613.2 1609.7 1606 1602.2 1600.8 1598 1596.4 1594.2 1589.6 1586.9 1585.6 1584.6 1581.2 1577.5 1572.6 1568.5 1565.5 1561.2 1557.2 1552 1546.4 1543.4 1540.3 1536.6 1534.3 1532.2 1529.1 1527.8 1523.5 1516.4 1513.4 1510.3 1506.8 1501.9 1498.3 1495.1 1492.4
2328.5 2334.2 2338.8 2344.2 2349.9 2356 2360.7 2365.2 2369.2 2373.9 2380 2385.5 2392.1 2400.3 2407.2 2414 2421.6 2428.9 2435.1 2442.5 2450.9 2458.5 2465 2472.7 2480.2 2487.8 2495.5 2502.9 2510.1 2518 2526.5 2531.4 2537.2 2541.6 2546.6 2553.1 2557.1 2562.5 2565.7 2569.3 2571.8 2576.3 2581 2584.1 2585.8 2589.5 2594.1 2598.6 2603.7 2604.4 2608.8 2611.8 2613.3 2618.7 2624.2 2627.7 2630 2630.5 2629.8 2631.7 2635 2637.4 2637.2 2641.2 2644.5 2648 2650.6 2655.9 2660 2658.1 2657.6 2657.2 2654.2 2652.3 2653.4 2658.3 2656.8 2657.2 2655.5 2655.5 2653.7 2653.6 2654.4 2653.5 2652.9 2651.2 2649.3 2649.2 2647 2643.2 2638.3 2632.9 2630.5 2630.1 2627.5 2608.5 2578.7 2536.8 2518 2502 2495.7 2468.3 2449.1 2434 2407 2388.9 2369.7 2348.9 2328.3 2309 2291.4 2273.7 2257.8 2240.2 2224 2210.3 2185.5 2170.4 2155.4 2140.9 2126.9 2113 2101 2084.4 2068.8 2054.6 2041 2023.4 2008.8 1992.7 1976.3 1961.3 1944.5 1929.1 1915.1 1901.6 1890.1 1879.1 1868.2 1858.1 1849.2 1842 1834.4 1826.8 1819.6 1813.3 1807.4 1801.1 1794.2 1786.6 1779.6 1773.5 1769.5 1765.4 1762.3 1761 1759.9 1758.3 1755 1753.7 1751.6 1749 1748.1 1746.6 1745.1 1742.6 1738.7 1735.5 1732.5 1729.4 1728.1 1726 1723.1 1719.2 1717.8 1715.7 1714.2 1711.8 1707.9 1706.1 1704.2 1703.7 1702.4 1700.3 1697.8 1695 1693 1692.6 1690.3 1689.3 1686.8 1684.6 1679.4 1670.7 1663 1656.6 1650.8 1646.4 1641 1637.8 1635.7 1634.3 1632.2 1632.1 1628.9 1628.8 1625.6 1625.1 1622.6 1619.6 1614.7 1612.7 1610.2 1606.3 1603.5 1603.5 1599.3 1597 1594.7 1592 1586.6 1584.7 1581.7 1581.2 1578.5 1572.7 1568.3 1565.2 1561.4 1555.9 1551.8 1547.1 1543.8 1540.4 1536.8 1532.8 1531.1 1527.6 1525.2 1523.2 1518.8 1514.4 1510 1507.5 1502.2 1499 1496.9 1493.1
2324.5 2329.5 2333.8 2339.1 2344 2349.9 2354.9 2359.5 2363.3 2368.5 2375 2380.4 2387.2 2394.3 2400.6 2408.4 2416.5 2422.7 2429.2 2437.3 2445.3 2452.2 2459.3 2466.8 2474.8 2482.8 2489.1 2494.7 2503.3 2511 2517.5 2523.8 2530 2534.9 2540.5 2546.3 2551.3 2557 2560.3 2562.8 2566.6 2570.4 2573.6 2575.6 2578.9 2583.7 2588 2591.8 2596.9 2600 2602.8 2604.6 2609.6 2616.4 2619.2 2620.1 2623 2622.4 2622.8 2626.1 2626.9 2629.1 2633.7 2636.5 2641.8 2645.2 2649 2650.3 2650 2651.8 2652.6 2653.5 2650.6 2648.2 2651 2653.4 2654.3 2653.7 2650.7 2651.4 2649.1 2650.4 2650.5 2649.3 2648.9 2647.2 2645.1 2644.5 2643 2639.6 2635.3 2629.2 2626.6 2619 2603.3 2597.8 2582.4 2560.9 2508.6 2488.2 2471.5 2452.7 2445.4 2429 2411.4 2384 2367.1 2344.6 2323.8 2302.9 2283.1 2265.2 2247.9 2231.4 2215.4 2217.3 2176.7 2160.4 2145.6 2130.9 2116.9 2102.9 2090 2077.1 2062 2046.6 2034.1 2018.2 2003.2 1990.5 1976.6 1962.5 1945.4 1927.6 1912.3 1898.3 1886.4 1876.8 1867.7 1857.7 1847.2 1839.5 1832.9 1825.4 1819.1 1813.6 1808 1802 1795.8 1788.2 1782.4 1777.1 1773.2 1768.7 1764.3 1760.1 1759 1756.7 1755.1 1753.6 1751.5 1748.1 1747.1 1747.3 1745 1742.3 1739.4 1736.8 1733.8 1729 1726.6 1724.4 1721.4 1718.7 1716.8 1714.9 1713.4 1711.2 1708.3 1705.4 1703.5 1701.5 1701.1 1699.3 1696.8 1695.7 1694.1 1692.9 1690.1 1688.2 1685.4 1682.4 1678.6 1672.2 1664.8 1659 1654.5 1648 1643.8 1640.4 1636.9 1635.2 1630.3 1628.4 1626.6 1624.4 1623.8 1621.5 1621.6 1618.6 1613.5 1611.6 1608 1607 1604.5 1602.2 1599.4 1597.5 1595.1 1592.4 1586.7 1583.8 1582.9 1582 1576.2 1570.1 1567 1562.7 1559.1 1556.3 1550.8 1546.2 1544.1 1541.7 1538.2 1536.2 1534.1 1530.4 1527.9 1524.9 1520.1 1515.1 1509.7 1506.2 1503 1499.7 1494.5 1490.8
2319.9 2323.3 2328.4 2333.3 2338.6 2344.5 2349.4 2353.3 2359.1 2364.6 2369.7 2375 2380.8 2387.7 2396 2403.6 2410.3 2417.1 2424.8 2432.7 2440 2446.5 2453.4 2460.9 2468.9 2475.5 2481.7 2487.1 2495.9 2503.4 2509.2 2517.2 2522.4 2528.2 2533.4 2539.4 2544.4 2549.1 2552.6 2556.3 2560.6 2563.2 2566.1 2568.9 2572.5 2577.8 2581 2586 2590.1 2593.2 2596.7 2602.9 2606.5 2609.3 2610.3 2611.4 2614.4 2614.8 2616.5 2618.4 2621.5 2625.7 2630.3 2632.8 2636 2639.6 2646.1 2644.7 2645.7 2647.6 2648.2 2649.5 2647.5 2647 2648.2 2650.8 2653.5 2653.3 2650.8 2652.6 2650.7 2649.5 2647.8 2647.2 2646.1 2644.9 2642.2 2641.1 2639.2 2636 2633 2626.7 2619.8 2608.1 2583.9 2572.8 2568.9 2565 2531.1 2482.6 2459.2 2441.4 2422.7 2404.9 2397 2375.4 2357.6 2339.5 2319 2298.3 2278.1 2258.7 2240.3 2223.3 2206.8 2190.2 2173.5 2154 2137.1 2121.5 2107.2 2093.5 2080.1 2067.3 2053.6 2039.1 2024.9 2009.8 1995.1 1983.5 1973.3 1963.7 1949.1 1929.9 1913.9 1898.5 1885 1875.4 1865.3 1854.5 1845 1837.5 1829.6 1824.3 1819.4 1815 1809.1 1803.9 1797.8 1790.8 1785.4 1778.2 1771.9 1764.8 1761.7 1758.5 1756.9 1755 1754 1753 1751.5 1749.5 1747.6 1746.1 1744.3 1742.2 1739.7 1737.4 1734.1 1730.1 1725.8 1724.2 1720.3 1716.3 1715.4 1714 1712.2 1710.5 1708.6 1705.5 1703.6 1700.6 1699.9 1698.6 1697 1694.9 1694.1 1692.7 1691.7 1689.2 1684.8 1678.9 1674.3 1670.5 1666.4 1660.5 1654.6 1650.5 1646.7 1642.3 1639.2 1634.9 1630.7 1626.9 1622.8 1622.7 1622.2 1621 1617.9 1615.9 1614.3 1612.4 1608.5 1605 1602.6 1601.3 1599.3 1597.4 1594.9 1591.4 1587.6 1584.6 1583.9 1581 1577 1571.1 1565.7 1562.2 1556.9 1553.1 1549.3 1547.5 1546.8 1544.1 1540.5 1537.1 1534.1 1530.9 1527.5 1524.7 1521 1516.2 1512.2 1509.1 1505 1500.1 1495.6 1492.5
2313.9 2316.8 2322.8 2328.5 2334.8 2339.9 2345.2 2350.8 2355.6 2360 2364.3 2369.2 2374.6 2383.3 2390.9 2397.9 2405 2412.9 2420.5 2428.3 2435 2440.7 2446.8 2455.3 2462.7 2469.2 2474.8 2479.9 2487.5 2494 2500.4 2507.9 2514.1 2520.1 2525.7 2531.5 2536.8 2540.7 2544.6 2548.3 2554.5 2557.1 2560 2562.1 2566 2568.9 2574.9 2581.3 2583 2586.5 2594.3 2599.7 2602 2601.4 2603.9 2606.1 2605.9 2607.1 2611.1 2612 2617.4 2621.6 2625.8 2628.9 2630.6 2636 2639.6 2639.3 2642.1 2643.7 2645.5 2645.2 2644.1 2644.9 2647.7 2650 2651.4 2654.6 2659.2 2662.3 2661.9 2660 2654.8 2648.9 2645.5 2643.2 2640.5 2638.3 2636.4 2633 2629 2622.6 2613.3 2600.8 2579.7 2552.2 2538.7 2546.6 2495.1 2482.3 2451.8 2429.6 2412.8 2394.2 2376.6 2359.8 2343.1 2329 2315.6 2294.6 2273.8 2253.6 2233.6 2216.2 2199.9 2184.5 2168.4 2151.9 2133.2 2116 2100 2084.9 2071.1 2058.2 2045.2 2032.4 2018.9 2003.7 1989.9 1977 1964.9 1953.4 1941.3 1926.1 1912.4 1901.4 1887 1877.3 1865.9 1854.3 1844.8 1837.2 1830.1 1823 1819.5 1814.6 1807.2 1802.4 1797.4 1790.6 1782.3 1775.4 1768.5 1765.7 1764 1759.6 1755.5 1754.3 1753.8 1752.8 1750.2 1748.4 1747.2 1744.8 1742.4 1741.3 1740.9 1736.2 1732.8 1730.2 1726.8 1722.4 1721.3 1717.4 1714.8 1714.4 1713.2 1710.9 1708.1 1705.5 1703.9 1700.3 1698.5 1698.2 1697.3 1695.8 1694.4 1692.5 1690.7 1686.5 1683 1675.9 1671.8 1668.1 1665.9 1661.5 1656.4 1651.7 1647.8 1642.4 1639.1 1635.6 1630.6 1628.1 1625.8 1622.9 1621.2 1621.7 1618.8 1615 1612.8 1611.3 1610.5 1605.5 1602.3 1600.7 1599 1596.6 1593.5 1589.2 1585 1583.6 1582 1580.2 1577.6 1571 1566.4 1561.3 1558.3 1554.9 1551.6 1550.3 1548 1545.5 1541.1 1537.4 1532.4 1529.5 1527.1 1524.2 1521.5 1517.8 1514.1 1510.5 1506.4 1501.5 1497.1 1492.1
2307 2311.5 2318.5 2324.8 2330 2336.3 2341.9 2345.9 2350.1 2354.5 2358.4 2363.8 2370.8 2379.2 2385.7 2393 2400.8 2408.2 2415.7 2422.5 2428.4 2434.3 2441.6 2448.6 2456.1 2462.9 2467.3 2472.7 2479 2485 2491.7 2498.1 2504.9 2512.1 2518.3 2523.8 2528.8 2532.5 2537.6 2542.2 2548.9 2549.9 2551.6 2554.9 2559.6 2562.5 2569.7 2572.5 2574.1 2582.9 2592.8 2594.4 2594.7 2595.4 2598.4 2599.8 2599.2 2599.3 2603.6 2606 2614.6 2616.9 2620.9 2623.5 2626.7 2631.4 2632.7 2636.4 2636.8 2638.4 2640.3 2639.6 2638.9 2640.6 2642.4 2647.4 2655.8 2664.5 2673.3 2679.2 2679.6 2675.1 2665.8 2657.1 2648 2643 2640.9 2639.6 2635.3 2631 2626.9 2618 2606 2593 2576.6 2548.7 2521.4 2504.1 2487.3 2466 2446.8 2424 2405.6 2388.5 2371.1 2353.9 2336.8 2321 2305.6 2290.3 2270.4 2250 2229.5 2209.4 2193 2177.2 2161.7 2145.8 2128.4 2111.3 2096.1 2079.9 2064.4 2051 2037.2 2024.8 2013.2 2000.4 1985.5 1972.8 1960.6 1947.3 1934.4 1921.2 1908.1 1897.5 1887.9 1881.4 1868.5 1855.6 1845 1837 1829.4 1824.8 1820.3 1813.5 1806.2 1799.7 1794.2 1786.8 1781 1777.2 1772.1 1769.9 1767.3 1761.8 1758.1 1755.3 1756.7 1754.5 1752.5 1750.9 1750.1 1747.1 1744.8 1743.3 1742.5 1738.2 1735.2 1732.2 1730.1 1726.2 1722.8 1719.9 1716.3 1716 1714 1712.3 1709.6 1707 1703 1700.5 1697.7 1697.3 1696.8 1695.7 1692.5 1689.7 1688.5 1684.3 1680.7 1676.2 1672.2 1667.8 1663.1 1660.5 1656.9 1651.4 1649.5 1645.7 1641.9 1637 1634.2 1630.4 1628.1 1625.7 1623.2 1620.8 1619 1614 1612.3 1609.5 1607.3 1604 1602.5 1600.6 1599.9 1597 1593.6 1590.7 1586.3 1582.9 1581.6 1579.5 1575.9 1571.9 1567.8 1563.6 1558.9 1555.7 1553.3 1550.8 1547.2 1543.9 1540.2 1535.6 1530.4 1528.3 1527.3 1524.2 1521 1518.1 1515.8 1511.5 1508.2 1504.7 1499.4 1494.7
2301.9 2308.1 2314.9 2321.4 2327.1 2332.1 2336.2 2340.8 2343.8 2347.9 2353.3 2360.4 2367.4 2374.3 2381 2387.7 2394.1 2401.3 2409.4 2415.5 2421.4 2428.1 2435.3 2441.6 2449 2455.3 2459.5 2464.9 2470.8 2476.7 2483 2488.5 2496.2 2504 2510.2 2516.2 2519.5 2524.6 2529.6 2535.1 2541 2542.2 2544.4 2548.7 2552 2558.3 2562.7 2564.8 2568.3 2580.1 2588.6 2588.4 2586.6 2589.1 2591.2 2592.8 2593.1 2593.8 2598.1 2604.3 2611.1 2612.5 2615.5 2618.5 2624.9 2627.7 2629.8 2632.1 2632.8 2632.6 2634.6 2633.8 2633.9 2634.9 2639 2651.8 2666.1 2678.6 2689.4 2694 2695.4 2689.2 2678.3 2665.7 2654.3 2643.5 2640 2637.5 2634.4 2630.2 2625.3 2618 2605.4 2584.3 2565.2 2546.9 2522.2 2498.2 2479.8 2461.6 2443.2 2424.8 2406.2 2387.9 2369.5 2351.6 2334.2 2318.9 2297.5 2280.6 2263.7 2245.5 2225.4 2205.3 2187.3 2171 2155.7 2139.9 2124.5 2108.4 2091.7 2076.3 2060.8 2046.2 2032.9 2020.6 2008 1996.4 1984.8 1972.9 1959.3 1944.9 1929.8 1917.4 1906.4 1896.4 1887.9 1879.5 1871 1861 1850 1840.3 1833.5 1829.2 1822.4 1813.5 1806.2 1800.1 1794 1788.8 1783.2 1781.8 1777.1 1774.3 1771.1 1765 1761.3 1760.4 1762.6 1758.7 1757 1754.4 1754 1751.2 1749 1747.5 1746 1742.5 1738.4 1736.1 1731.8 1728.6 1725.1 1721.5 1718.2 1717.1 1714.5 1713.8 1711.2 1708.9 1704.3 1699 1697 1696.5 1695.7 1694.3 1692.2 1689.2 1684.8 1681.7 1678.9 1674.4 1672.4 1668.9 1663.5 1659.9 1656.2 1653.3 1650.5 1646 1643.1 1638.5 1634.9 1633.9 1630.7 1628.9 1628 1622.1 1617.6 1615.3 1612.4 1610.4 1606.7 1604.8 1603.3 1599.9 1598.4 1596.7 1593.2 1590.3 1588.6 1584.6 1580.7 1577.7 1574.9 1571.1 1567.1 1562.9 1557.6 1554.3 1552.3 1549.3 1545.9 1542.7 1539.7 1535.6 1530.6 1526.8 1525.1 1523.2 1521.6 1519.5 1515.6 1512 1507.6 1504.1 1500.4 1497
2298.4 2304.7 2311.5 2316.8 2321.1 2326.2 2331.3 2335.5 2338.4 2343.9 2351.5 2357.3 2362.8 2369 2375.1 2380.8 2387.7 2396.1 2403.1 2408.5 2414.5 2421.5 2428.4 2435.3 2442.2 2449 2453.3 2458.6 2463.8 2468.8 2475.3 2481.1 2488.9 2496.4 2502.6 2507.2 2511.2 2516.6 2520.4 2526.9 2531.9 2533.8 2538.4 2540.9 2545.3 2550.6 2555 2556.1 2562.7 2572.2 2579.7 2579.8 2580.9 2584.7 2585 2588.6 2588.3 2592.1 2597.3 2602.6 2607.8 2609.2 2611.3 2617.4 2622.6 2623.3 2626.8 2630.9 2629.2 2628.5 2626.8 2626.7 2629 2630.1 2641.2 2657.7 2672 2685.5 2684.3 2684.6 2696.4 2703.8 2687.4 2672.3 2658.9 2647.4 2639 2635.1 2632.5 2628.5 2623.2 2616.5 2605.2 2582.7 2559.6 2543.5 2522.8 2505.5 2480.3 2462.9 2445.5 2428 2408.8 2388.5 2370.1 2351.7 2333.7 2316.6 2294.2 2273.9 2257.1 2240.8 2225.1 2205.7 2185.3 2166.4 2150.6 2135.8 2120.8 2106.3 2091.9 2076 2059.6 2043.9 2030.4 2020.4 2010.5 1998.7 1986.8 1973.2 1958 1942.5 1928.3 1916.5 1907.6 1897.3 1888.7 1882 1876.2 1867.3 1856.4 1846.7 1839.1 1831.2 1825.7 1818.4 1808.9 1804.2 1798.6 1793.3 1790.3 1786.5 1781.7 1777.1 1772.1 1768.1 1765.7 1766.7 1768 1763.7 1761.7 1759.7 1757.6 1755.6 1753 1750.9 1748.1 1744.5 1741 1738 1733.8 1730.4 1726.2 1722 1719.5 1719.2 1716.3 1714.4 1712.7 1709.5 1703.7 1697.7 1695.7 1696.2 1695.3 1693.4 1691.1 1688 1684.4 1681.8 1678.9 1675.9 1673.2 1669.4 1666.6 1661.8 1657.7 1654.7 1651 1648 1645.8 1641.1 1636.8 1632.7 1631.2 1629.3 1629.5 1623.5 1619.3 1616.7 1614.9 1612.6 1609.9 1608.1 1604.9 1601.3 1597.9 1595.4 1593.1 1590.9 1588.2 1584.4 1580.8 1577.4 1574.1 1571.5 1566.6 1562.4 1559.1 1557 1552.1 1549.7 1546.5 1544.3 1538.6 1535.4 1531.2 1528.1 1524.3 1522.4 1520.1 1517.6 1514.3 1510.8 1506.8 1504 1501.1 1497
2293.6 2299.6 2304.7 2309.8 2315.8 2321.5 2325.9 2330.2 2335.1 2342.3 2348.2 2352.9 2358 2363.6 2369.3 2376.7 2385.3 2392 2396.7 2401.8 2408.2 2415.3 2422.4 2429.2 2435.9 2442.5 2447 2451.9 2456.9 2462.1 2467.8 2473.1 2481.1 2488 2494.5 2497.8 2501.8 2506.9 2512.9 2519.3 2523.2 2526.6 2532.1 2532.9 2538.7 2542.7 2547.8 2549.1 2555.9 2567.3 2572.5 2571.7 2577.1 2579.4 2582.1 2584.2 2586.2 2591.2 2598.4 2601.7 2604.3 2604.8 2608.9 2614.4 2618.2 2621.2 2623.5 2627.5 2627.3 2627.5 2620.9 2619.3 2622.7 2627.2 2643.7 2661.3 2677.1 2688.9 2678.9 2675 2688.5 2705.2 2693.6 2676.9 2662.3 2649.1 2639.8 2634.5 2630.4 2626.7 2621.7 2614.7 2607.6 2588 2564.3 2541.7 2522.7 2503.7 2487.7 2471.2 2453.8 2433.9 2411.1 2390.8 2371.8 2355 2344.6 2328.3 2312.5 2269.9 2250 2233.9 2219.4 2204.8 2186.2 2166.5 2148.7 2134 2119.3 2101.9 2087.8 2074.4 2058.4 2042.2 2029.2 2018.6 2011.8 2002.9 1989.9 1973.8 1958.1 1943 1929 1917.4 1907.6 1893.8 1883.8 1877.2 1869.4 1861.4 1853.9 1846.7 1840.4 1833.3 1827.5 1819.4 1811.2 1806.7 1801.5 1797.5 1793.1 1789 1781 1776.2 1774.1 1772.4 1770.9 1770.1 1771.5 1768.9 1765.9 1764.3 1762.5 1759.1 1755.4 1752.4 1748.9 1746.4 1742.2 1738.9 1735 1731.2 1726.7 1721.4 1720.5 1718.7 1717.1 1715.2 1713.1 1708.2 1702 1697.3 1695.6 1694.8 1693.9 1692.7 1691 1687.7 1684.4 1681.2 1678.8 1676.5 1672.5 1668.8 1666.6 1663.1 1656.5 1654.3 1650.9 1648.3 1645.3 1642.1 1637.9 1632.4 1631.2 1629.9 1625.8 1623 1618.2 1614.9 1614.8 1610.8 1608.6 1607 1604 1599.3 1595.9 1593.6 1590.4 1589.9 1585.9 1583.6 1580.6 1576.7 1574.3 1571.8 1568.2 1564.1 1561.6 1558.2 1554.4 1551 1545.3 1542.6 1539.3 1535.5 1532.4 1528.2 1526.2 1523.4 1520.3 1517.2 1513.9 1511.9 1509.2 1505.3 1501.1 1498.2
2288.2 2292.6 2297.6 2304 2310.9 2316.2 2319.6 2324.4 2331.1 2336.9 2342 2347.1 2353 2358.9 2366.1 2373.5 2381.4 2386.4 2389.9 2395.8 2403.5 2410.4 2416.9 2423 2429.5 2435.2 2439.7 2445.1 2449.9 2455.3 2460.4 2466 2472.5 2479 2484.8 2488.4 2492.2 2498 2504.9 2511.5 2516.3 2520.5 2523.8 2527.2 2532.7 2536.9 2543.7 2550.1 2556.1 2563.3 2566.8 2568 2573.6 2577.4 2578.1 2581.7 2586.9 2592.8 2595.9 2597.8 2598.3 2601.6 2607.9 2608.6 2613.8 2617.7 2621.8 2625.4 2625.2 2623.6 2618.2 2614 2617.4 2626.2 2643.5 2662.4 2677.2 2690.9 2682.2 2675.4 2685.2 2701.5 2696.9 2677.8 2663.1 2649.2 2640 2633.8 2628 2624.4 2618.8 2613 2606.1 2591.2 2565.3 2543.7 2526.3 2504.5 2490.7 2473.9 2457.7 2439.6 2408.5 2397.6 2374.1 2358.3 2341.1 2321.8 2310.1 2275.6 2246.8 2226.4 2211.4 2196.1 2177.3 2162.3 2148.2 2133.4 2116.7 2099 2082.8 2071.2 2057.8 2042.8 2027.7 2018.1 2011.4 2003 1990.2 1974.4 1956.9 1940.6 1926.7 1915.6 1905.1 1895.9 1886.6 1876.8 1867.5 1860.3 1854 1848.1 1841.1 1833.6 1828.6 1822.5 1815.9 1809.6 1804.1 1799.6 1793.4 1788.1 1782.1 1777.4 1775.9 1776.1 1773.7 1772.6 1774.1 1772.9 1770.4 1768.6 1767.2 1763.2 1758.1 1755 1751.8 1747.4 1743.5 1739.4 1734.4 1730 1726.8 1721 1718.5 1717.6 1715.8 1713.8 1712.1 1706.8 1700.8 1698.8 1696.5 1693.6 1692.4 1692.1 1690.3 1688.3 1684 1680.5 1678.5 1676 1674 1669.8 1666.7 1663.1 1659.2 1654.3 1652.8 1650 1646 1642.4 1638.5 1634.7 1633.6 1631.1 1625.8 1622.8 1619.5 1614.6 1611 1607.7 1605.7 1603.9 1601.5 1599.9 1595.9 1593.3 1590.1 1586.1 1586.5 1584.5 1582.3 1578 1575.7 1571.7 1567.3 1565.1 1561 1557 1552.5 1549.1 1545.6 1541.7 1539.1 1535.4 1531.7 1528.7 1526 1523.9 1521.3 1518.7 1516.1 1513.4 1508.1 1506.9 1505.1 1504.2
2282.9 2288.3 2293.9 2300.8 2306 2309.7 2313.2 2319.3 2325.3 2329.9 2336.1 2341.3 2347.1 2354.6 2361.6 2368.8 2375.1 2379.6 2384.7 2391.8 2398.6 2404.8 2410.4 2416.6 2422 2427.6 2432.2 2437.7 2443 2448.1 2453.8 2459.8 2465.8 2469.9 2475.2 2479.5 2483.1 2487.8 2494.9 2501.7 2508 2513.4 2516.2 2521.4 2526.8 2533.6 2542.2 2550.7 2556.2 2558.3 2560 2565.3 2569.5 2571.6 2574.1 2580.6 2586.6 2593 2592.2 2591.3 2592 2598.4 2602.7 2606.2 2612.5 2615.9 2622.3 2624.2 2623.2 2623.1 2615.5 2610.6 2612.8 2622.1 2639.1 2657.3 2672 2685.6 2688.8 2684.5 2695.5 2698.5 2691.3 2675.8 2660.5 2647.3 2638.1 2632.2 2626.2 2621.1 2616.1 2609.5 2601.6 2582.3 2560.9 2540.7 2520.2 2500.4 2484.4 2467.8 2452.3 2440.6 2402.7 2381.5 2362.7 2343.7 2328.2 2304.7 2283.6 2271.2 2247.7 2220 2203.2 2189.2 2173.4 2156.2 2142.1 2129.5 2114 2095.8 2078.1 2065.6 2053.9 2040.3 2028.1 2020.7 2011.7 2001.1 1988 1972.6 1956 1938.6 1924.2 1914 1905.8 1897.6 1887.9 1879.8 1872 1863.2 1855.4 1848.5 1840 1833 1825.7 1822.1 1819.2 1812.2 1807.1 1799.5 1794.4 1789.3 1784.1 1778.8 1778.2 1778.2 1776.9 1777.1 1776.7 1775.4 1772.8 1771 1770 1766.3 1761.2 1756.6 1753.4 1749.9 1745.5 1739.8 1733.9 1728.5 1725.4 1720.4 1716 1715.8 1714.6 1712.9 1708.8 1705.1 1700.5 1696.6 1695.1 1693 1692 1691.1 1689.4 1687.2 1682.5 1679.6 1678.7 1677.4 1674.3 1670.2 1667.3 1663 1660.4 1657 1655.2 1651.2 1647.1 1642 1637.4 1635.1 1632.4 1629.3 1625.4 1621.3 1618.3 1615 1609.4 1607 1605.1 1602.3 1599 1597.4 1596.7 1594.1 1590.6 1585.6 1584 1583 1580.3 1577.4 1575.1 1570.6 1566.6 1563.7 1560.8 1555.1 1550.7 1547.8 1544.4 1541.6 1538.4 1536.7 1532 1528.1 1527 1524 1521.6 1520.1 1517 1513.8 1511.2 1509.4 1506.4 1504.2
2277.6 2283.6 2289.6 2295.8 2300.3 2303.4 2308.5 2314.5 2319.1 2323.5 2329.7 2335.7 2342.4 2349.6 2356.9 2364.6 2370.6 2375 2381.3 2387.5 2393.1 2399 2404 2409.4 2413.8 2419.6 2424.6 2429.6 2435.2 2440.7 2447 2453.8 2458.8 2463.3 2466.2 2470.5 2474.6 2479.3 2486.4 2493.6 2500.2 2504.5 2509.6 2515.3 2521.8 2527.3 2536.7 2543.6 2548.7 2552.8 2555.6 2558.7 2562.9 2565.1 2568 2572.4 2578.7 2586.6 2585.8 2582.5 2588.3 2594 2597.9 2604.1 2611.6 2615.2 2616.2 2622.6 2621.1 2619.8 2614.1 2609 2609.8 2617.8 2633.3 2648.9 2663.5 2675.1 2686.9 2687.9 2688 2688.8 2682.1 2669.2 2656.1 2643.7 2634.8 2629.1 2625 2618.4 2613.1 2605.6 2596 2575.1 2553.2 2531.9 2513.7 2494.6 2474.4 2455 2437.7 2421.8 2404.6 2379.7 2355.5 2330.5 2310 2290.2 2271.6 2253.5 2235.3 2218 2200.2 2182.7 2168.4 2152.6 2137 2122.9 2109.4 2093.7 2076.3 2061.4 2048.6 2037.8 2029.8 2021.7 2010.6 1996.8 1983.1 1969.8 1955.4 1938.9 1924.2 1915.2 1909.1 1900.4 1892.6 1885.2 1876.5 1867.6 1859.8 1850.4 1842.6 1833.5 1828.3 1824.2 1817.8 1809.2 1805.5 1799.3 1794.4 1788.8 1784.1 1780.6 1779.7 1781.1 1781.2 1780.3 1779.6 1778.5 1775.2 1772 1769.7 1765.3 1761.5 1758.7 1755 1752.4 1747.2 1741.2 1734.9 1728.8 1723.7 1719.3 1714.1 1712.6 1711.6 1710.7 1706 1701.4 1698.3 1694.3 1692.4 1691 1690.4 1690.3 1689.1 1686.5 1681 1677.8 1676.3 1676 1673.1 1668.1 1666.4 1662.5 1659.8 1659.6 1659.3 1654.9 1648 1644.6 1638.6 1636.1 1631.4 1627.7 1625.3 1622 1619 1615 1611 1606.6 1604.7 1599.9 1598.6 1596.6 1596 1594.7 1591.2 1587 1583.4 1580.3 1579.1 1577.1 1573.4 1569.9 1567.7 1562.8 1559.4 1555 1552 1548 1546.4 1544.4 1541.6 1537.8 1533.8 1529.7 1527.7 1525.6 1523.7 1520.1 1517.1 1516 1513.8 1510.5 1507.3 1504.7
2273.6 2279.3 2284.7 2289.9 2294.7 2299.3 2304.8 2309.2 2312.5 2318.3 2323.5 2330.5 2338.5 2345 2351.6 2359.9 2365.9 2371.6 2377.5 2383.4 2388.3 2392.9 2397.1 2401.7 2405.9 2411.8 2416.3 2422.4 2427.8 2433.5 2439.7 2446 2451.1 2456.2 2458.9 2462.6 2465.6 2471.3 2480.4 2487.2 2491.9 2496 2502.9 2512 2517 2525.1 2529 2536.5 2542.9 2547 2548.6 2552.4 2555.8 2557.5 2558.9 2563.3 2575.9 2582.5 2576.3 2577.3 2580.3 2586.6 2591.2 2599.6 2603.4 2611.2 2610.3 2612 2619.3 2616.2 2612.5 2606.6 2605.4 2612.6 2625.3 2639.2 2650.2 2662.5 2673 2676.7 2675.2 2674.9 2668.9 2659.9 2649.4 2639.3 2633.1 2628.6 2621.1 2616.3 2610.1 2602 2586.2 2570.3 2547.6 2526.6 2505.7 2487.8 2468.1 2447.1 2428.6 2409.8 2392.6 2370.5 2352.4 2327.2 2307.4 2288.6 2270.2 2252.2 2234 2216.9 2198.9 2181.6 2165.2 2149.2 2130.5 2115.7 2100.9 2085.5 2071.9 2057.7 2044.6 2034.8 2026.7 2019.6 2009.2 1993.5 1980.3 1968.2 1957 1941.7 1926.9 1917.7 1910.5 1902.6 1894.4 1886.7 1878.4 1870.1 1861.4 1851.9 1842.8 1833.2 1828.5 1824.5 1818.6 1811.6 1808.7 1802.7 1795.9 1790.7 1785.9 1784.1 1783.8 1784.8 1785.4 1783.2 1781.6 1779.1 1775.4 1772.9 1770.7 1766.1 1764.7 1760.6 1758.3 1754.8 1750.3 1743.8 1736.1 1729.4 1723 1718 1713.7 1710.1 1707.6 1706.2 1702.6 1697.2 1693.2 1690.1 1689.1 1688.7 1689.1 1690 1689.3 1685.3 1680.7 1677.1 1674.2 1671.6 1670.4 1666.6 1664 1662.8 1661.6 1662 1658.8 1656.2 1650.3 1645.5 1641.7 1637 1633 1628 1625.5 1624.2 1618.5 1615.3 1612.7 1608 1605.1 1602.3 1601.7 1598.4 1595.4 1593.6 1591.6 1588.2 1583.9 1579.8 1579.5 1578.2 1576.3 1572.1 1569.4 1564.6 1559.9 1557.5 1554.2 1550.2 1549.1 1547.8 1544.5 1538.7 1534.3 1529.6 1526.8 1527.8 1525.2 1521.5 1518.2 1516.3 1513.8 1510.6 1507.4 1501.7
2270.7 2274.9 2279.4 2284.3 2289.9 2294.9 2299.7 2303.2 2307.1 2313.2 2320.1 2327.8 2334.1 2338.9 2344.8 2352.8 2360.3 2366.7 2372.2 2377.9 2382 2385.8 2389.8 2392.4 2397.5 2403.5 2408.9 2414.9 2420.7 2425.6 2431.6 2437.7 2443.6 2448.2 2453.6 2459.3 2463.7 2468.7 2475.4 2482.4 2484.5 2490.3 2498.6 2505.4 2513 2518.5 2522.4 2530.7 2537 2538.5 2544.4 2546.3 2550.6 2553.1 2555.4 2559.7 2569.9 2575.4 2573.6 2569 2571.6 2579.9 2586.2 2590.9 2596.2 2599.1 2600.3 2606.2 2614.4 2610.3 2606.9 2602.5 2601.9 2608.4 2617.1 2628.5 2639.8 2649.7 2656 2660.9 2660.3 2658.7 2654.7 2649.7 2643.8 2636.8 2631.8 2625.9 2619.5 2610.9 2605.1 2597.4 2582.1 2562.7 2544.3 2523.3 2501.6 2482.9 2464.3 2445.2 2426.1 2406.4 2387.1 2367.6 2348.7 2329.2 2309.5 2290.7 2271.5 2253.2 2235 2217.9 2200.5 2183.4 2167.1 2151.1 2131 2110.9 2094.1 2078.5 2062.5 2048.8 2037.4 2027.9 2020.7 2012.9 2003.9 1992.4 1980.5 1968.2 1955.7 1942.2 1927.5 1918.3 1911.8 1903.9 1895.4 1887.2 1877.3 1867.7 1859.5 1850.7 1841 1832.7 1829.8 1826.3 1822.9 1817.1 1810.9 1805.2 1800.3 1794 1789.1 1788.4 1788.1 1788.9 1789.1 1786.3 1784.7 1780.7 1778 1775.1 1772.6 1769.9 1768.8 1764.7 1759.8 1756 1751.7 1744.4 1737 1729.9 1723.9 1717 1712.3 1709.5 1706.3 1702.3 1698.1 1694.2 1689.5 1686.6 1686.4 1686.5 1687.4 1688.9 1688.2 1684.4 1679 1673.8 1672.8 1670.5 1666.8 1665.3 1664.8 1661.8 1660.5 1658.8 1656 1651.9 1647.9 1644 1641.4 1638.1 1635 1629.6 1625.7 1623.5 1619.1 1615.9 1612.8 1608 1604.4 1603.3 1601.8 1601.1 1597.4 1592.1 1589.6 1587.1 1583.9 1581.7 1580.3 1580.4 1576.9 1573.3 1570.3 1565.2 1561.5 1560.7 1558.1 1554.4 1553.7 1549.4 1543.7 1539.7 1536.7 1532.2 1529.1 1528.4 1525.9 1522.5 1520.8 1518.5 1513.9 1511 1506.4 1501
2267.2 2270.5 2275.8 2280.5 2285.2 2290.3 2294.7 2297.2 2302.4 2310.3 2317.3 2322.6 2328 2331.6 2337.2 2345.6 2353.6 2359.2 2366.3 2371.5 2375.3 2379 2381.7 2383.9 2389.3 2395.2 2401.4 2407.3 2412.9 2418.2 2424 2429.4 2436.6 2444.9 2452.6 2457.6 2461.7 2466.2 2471.6 2476.8 2477.2 2484.1 2490 2500 2504 2508.8 2515.5 2521 2529.2 2531.5 2537.1 2540.1 2545.8 2549.5 2554.7 2561.7 2563.2 2567.1 2566.4 2564.8 2569.2 2577.1 2582.1 2583.9 2589.7 2590.8 2597.3 2602.7 2608.2 2605.4 2600.8 2598.1 2599.6 2605.1 2611.2 2618.3 2627.7 2635.5 2640.7 2644.4 2646.8 2646.6 2644.4 2642.4 2640.4 2634.9 2628.9 2623.1 2616.9 2608.6 2600.1 2593.5 2578.4 2558.6 2539.7 2521.2 2501.7 2482.8 2463.9 2444.7 2425.8 2406.7 2387.4 2368.5 2349.4 2330.4 2311.3 2292.6 2274.4 2256.5 2238.7 2221.1 2204.9 2191.7 2179.4 2157.3 2131.5 2112.6 2088.4 2071.9 2056.8 2042.3 2029.3 2019.7 2014.3 2007.8 2000.8 1990.3 1977.1 1964.5 1954.1 1941.7 1929.6 1921.9 1913.7 1906.1 1896.5 1886.5 1876.1 1868 1860.9 1852.2 1844.3 1837.8 1832.4 1829.8 1825.9 1820.3 1814.1 1807.6 1802.9 1797.2 1792.6 1792 1790.7 1790.7 1789.7 1788.8 1786.8 1784.1 1780.4 1776.4 1774.7 1772.9 1773.2 1767.7 1761.2 1756.7 1751.1 1745.2 1737.6 1729.7 1723.8 1717.5 1711.6 1708.7 1704.5 1700.2 1696 1691.3 1686.9 1684.7 1684.7 1684.4 1685.3 1686.5 1685.7 1680.9 1677.9 1671.1 1669.8 1667.7 1664.9 1664.9 1664.1 1659.4 1657 1655.6 1652.9 1649.2 1645.7 1643.6 1641.5 1636.9 1634.8 1630 1624.5 1622.1 1619.4 1615.5 1612.3 1608.1 1605.7 1604 1603.1 1601.9 1600 1595.7 1592.3 1587.2 1585.3 1582.2 1581.8 1581.5 1578.9 1576.4 1572.8 1567.5 1564.5 1561.9 1558.9 1557.2 1554.3 1548.4 1543.6 1542.2 1538.9 1535.8 1530.5 1528.6 1525.2 1525.1 1523.3 1521.8 1515.7 1511.5 1506.8 1503.1
2263.1 2267.3 2271.8 2276 2280.4 2285.3 2288.3 2291.4 2299.2 2307.1 2312.5 2316.8 2321.6 2326.9 2334.1 2340.8 2347.5 2352.6 2359.9 2364.2 2368.2 2372.7 2374.5 2376.8 2381.6 2388 2392.9 2399.8 2405.8 2411.7 2418.5 2424.8 2432.2 2441.5 2446.5 2451.7 2457.2 2462.4 2465 2469 2472.9 2475.4 2484.6 2491.8 2495.6 2501.3 2509 2513.7 2518.8 2524.1 2531.1 2536.8 2541.8 2549.4 2554.2 2556.7 2556.8 2558.7 2561.8 2564.5 2565.7 2571.9 2576.5 2580.7 2583.4 2586.3 2592.1 2594.8 2600 2597.6 2597.1 2594.4 2597.3 2604.5 2610.8 2617.2 2622.9 2629.9 2635 2637.2 2639.9 2641 2638.8 2638 2635.8 2629.9 2622.8 2618.5 2613.1 2606.4 2598 2590.8 2577.7 2560.5 2540.4 2522.4 2505.9 2488.2 2465 2446.5 2429.7 2408.1 2390.8 2371.4 2352.7 2336.2 2315.8 2299.9 2283.5 2266.4 2247.7 2231.6 2218.4 2207.6 2187.6 2169.5 2153.1 2139.3 2095.8 2066.9 2052.3 2039.5 2030 2019.4 2011.5 2005.3 1997.4 1986.5 1973.2 1958.7 1949.1 1940.2 1932.4 1923.9 1914.5 1906.8 1896.8 1885.5 1877.8 1870 1864.4 1857.2 1849.6 1843.2 1836.6 1831.9 1827.4 1822.5 1815.9 1810.1 1805.7 1799.4 1794.2 1793.2 1793.3 1792.6 1790.7 1790.2 1787.8 1784.2 1781.1 1778.1 1776.1 1774.8 1774.3 1769 1763.9 1758.2 1753.4 1746 1738.7 1732.3 1724.2 1717.3 1711.1 1706.7 1703.2 1698.4 1694.2 1689.6 1685.3 1682.2 1682 1681.3 1682.5 1681.3 1680.1 1677.4 1674.1 1669.3 1666.2 1664.4 1663.1 1664.4 1663.1 1659 1653.9 1654 1650.4 1646.9 1643.7 1642 1639.3 1635 1632.4 1628.7 1626 1623.1 1619.4 1616.1 1613.8 1609.4 1606.8 1604.9 1603.4 1601.6 1599.3 1597.4 1594.2 1589.3 1585.9 1582.7 1582.6 1581 1579.1 1577 1574.8 1570.5 1567.9 1565.3 1562.9 1558.2 1554.4 1550.3 1546.1 1544.6 1540.9 1538 1534 1531 1528.5 1526.8 1524.3 1519.4 1517 1512 1508.6 1503.9
2259.4 2263 2267.6 2270.4 2274.9 2279.2 2282.2 2288.1 2294.8 2301.6 2305.8 2311.1 2317 2323.2 2329.2 2335.4 2341.8 2348.1 2353.9 2356.4 2361.5 2365.9 2367 2369.7 2374 2379.9 2385.5 2394.2 2401.1 2408 2415.5 2422.5 2427.6 2434.9 2439.2 2447.2 2452.9 2455.8 2458.5 2464 2467.9 2474.8 2483.4 2489.1 2494.9 2500.6 2504.7 2507.2 2515.3 2519 2523.5 2530.1 2538.2 2544.6 2546.4 2549.2 2551.6 2554.9 2558.4 2560.8 2561.9 2567.4 2572.9 2577.2 2579.4 2583.2 2587.8 2590.4 2593.1 2593.9 2594.4 2595 2597.4 2601.4 2607.2 2614 2619.7 2627.5 2633 2635.9 2636.3 2638.6 2636.7 2632.2 2628.8 2622.1 2616.7 2613.6 2608.4 2603.2 2597.2 2590.2 2579.8 2565.6 2545.5 2524.7 2506.7 2490.6 2468.7 2450.2 2432.3 2411.6 2394.9 2378.2 2357.2 2341.9 2327.5 2317.5 2301.1 2280.7 2263.8 2259.3 2238.3 2239.1 2233.8 2192.6 2190.8 2152.8 2121.6 2087.6 2064 2055.3 2042.4 2029.7 2024.4 2012.5 1995.8 1979.6 1967.3 1954.2 1943.7 1938.4 1933.1 1924.6 1913.9 1904.7 1896.5 1887.6 1880.2 1871.4 1864.2 1855.7 1849.4 1843.8 1838.3 1833.7 1830.3 1826.1 1819 1812.4 1808.1 1803.5 1798 1794.7 1795.7 1793.8 1791.4 1789.7 1788.1 1784.6 1782.4 1780.7 1778.5 1775.8 1775.1 1772 1765.9 1761.8 1756.4 1748.5 1739.7 1732.3 1725.5 1718.9 1712.5 1706 1701.1 1695.9 1690.5 1686.9 1683.4 1680.7 1680.2 1678.7 1680.2 1677.2 1674.8 1674.1 1672.4 1668.6 1665.2 1662.3 1662.1 1660.9 1659.6 1656.5 1653.6 1650.8 1646.5 1645 1643.2 1639.4 1637 1634.7 1631.8 1629 1625.8 1622.5 1619.4 1614.4 1612.7 1608.9 1607.3 1605.4 1602.7 1599.3 1597.4 1595.1 1592.5 1588.4 1584.5 1584.6 1583.5 1582 1578.9 1577.3 1576 1574.2 1570.9 1568.5 1564.7 1560 1555.4 1551.1 1546.9 1545.3 1543.5 1540 1535.9 1535.1 1532.8 1529.1 1525.2 1519.9 1517.1 1513.1 1508.7 1506.1
2254.9 2258.7 2262.8 2266.2 2270.8 2273.8 2278 2283 2289.2 2295.7 2302.1 2307.9 2312.9 2318 2323.1 2330.2 2336.6 2342.7 2347.1 2350.9 2355 2358 2358.5 2363.4 2367.2 2373.2 2381.5 2388.9 2398 2405.5 2411.9 2418.6 2421.4 2428.4 2437.4 2442.4 2444.5 2449 2452.9 2458.8 2463.2 2471.6 2480.7 2483.9 2491.9 2498.4 2501.4 2506.1 2513 2515.8 2519.2 2526 2532.6 2534.9 2538.9 2543.5 2547.4 2548 2551.3 2552.8 2555.8 2559.9 2568.4 2574 2577.4 2581.7 2584.7 2589.6 2589.6 2588.3 2590.9 2591.9 2595.3 2602.5 2609.5 2616.2 2622.1 2627.8 2632.9 2634.7 2634 2635.3 2632.6 2625.3 2619.3 2613.5 2608.5 2605.1 2601.4 2599.9 2595.8 2590 2582 2568.3 2547.2 2525.5 2505.6 2488.8 2474.1 2457 2434.4 2407 2387.7 2369.8 2352.5 2337.2 2322.3 2304.8 2290.3 2277.5 2261.8 2247.7 2235.9 2219.9 2210.6 2207.3 2179.8 2173.1 2147.4 2118.4 2088.6 2076.9 2062.1 2048.3 2034.9 2016.9 1996.8 1974.9 1959.9 1946.9 1937.3 1932.9 1928.7 1921.4 1912.1 1904.4 1897.5 1892.4 1884 1874.6 1863.8 1855 1850.5 1846.4 1841.3 1837.4 1833 1826.7 1821.1 1815.6 1811.6 1806.7 1802.6 1796.1 1795.4 1793.6 1790.1 1788.7 1787 1785.1 1783.2 1781.7 1778.8 1777.2 1775 1771.9 1769.6 1764.1 1757.4 1749.4 1742.4 1734.6 1726.4 1718.5 1712.1 1705.5 1699.2 1694.5 1689 1684.7 1679.9 1678.6 1678.4 1676.4 1675 1674.7 1671.4 1671.1 1669.8 1666.1 1665.3 1662.8 1661.3 1659.1 1656.6 1654.4 1651.5 1649.5 1646.2 1642.2 1639.2 1636.1 1635 1633.5 1632.6 1630.6 1629.2 1625.5 1619.7 1615.6 1612.9 1609.8 1606.9 1603.8 1599.7 1597.6 1595.9 1593.3 1590.1 1587.4 1585.9 1587.3 1585.8 1582.6 1582 1580.9 1580.9 1579.4 1574.9 1570.9 1564.4 1561.7 1557.1 1553 1548.8 1547.2 1544.9 1544 1539.9 1537.9 1535.1 1529.1 1524.5 1520.8 1517.5 1513 1507.9 1505.7
2250.2 2254.1 2258.5 2262 2265.3 2269.2 2273.9 2280 2287.1 2292.4 2296.6 2301.8 2306.7 2311.5 2318.1 2324.6 2331.2 2337.2 2340.9 2345.1 2348.8 2351.3 2353 2358.9 2363.5 2368.7 2376.1 2385.9 2394.4 2400.6 2406.6 2409.9 2417.7 2426 2430.3 2434.4 2437.7 2441.1 2446.7 2451.1 2461.4 2468.8 2473.9 2481.9 2491 2495 2497.9 2504.4 2508.4 2512.3 2515.3 2519.7 2524.9 2529.4 2536 2537 2540.7 2544.5 2544.2 2546.5 2550.5 2556.9 2562.7 2567.5 2570.5 2575.3 2577.9 2581.4 2583.8 2585.6 2585.8 2589.3 2597.9 2605.5 2615.6 2620.9 2626.9 2630.6 2633.9 2633.4 2629.9 2626.6 2622 2615.8 2613.8 2608.5 2601.5 2598.9 2595 2595.1 2593.3 2589.2 2583.6 2566.5 2544.8 2523.5 2502.5 2482.9 2468.6 2450.5 2428.9 2407.1 2385.8 2367.1 2349.1 2331.6 2315.1 2297.6 2278.5 2261.4 2246.2 2230 2220.7 2203 2189.9 2178.5 2161.3 2152.5 2137.7 2134.5 2117.8 2093 2073.6 2051.7 2034.7 2020.2 1993.6 1975.2 1951.4 1937.2 1930.3 1926.3 1923.7 1918 1913.4 1906.9 1898 1889.3 1882.6 1877.2 1869.3 1856.7 1853.9 1851.7 1846.5 1841.1 1836.1 1829.7 1824.2 1817.9 1813.8 1808.9 1804.5 1800.5 1797.6 1792.2 1789.4 1787.3 1785.5 1783.4 1781.6 1781.6 1779.9 1779.3 1778.4 1775 1771 1765 1756.9 1750.2 1742.5 1734.3 1725.8 1719.4 1712.5 1706 1699.3 1693.3 1686.4 1682 1677.8 1676.8 1676 1673.2 1671.6 1670.8 1669.5 1669 1667.4 1663.7 1664.2 1662.1 1660 1656.6 1654.6 1652.9 1650.1 1647.4 1644.6 1641 1638 1635.3 1633.5 1633.2 1633.5 1633.3 1629.6 1626.1 1622.2 1617.2 1614.3 1611.4 1606.4 1603 1598.6 1597.4 1597.7 1596.1 1592.7 1589.2 1587 1588.6 1588.5 1585.8 1583.1 1582.7 1584 1583 1576.8 1572.3 1567.3 1562.2 1556.7 1552.5 1550.1 1549.9 1548.6 1548.3 1545.3 1540.8 1703.4 1532.5 1525.5 1520.5 1518.1 1514.5 1511.1 1506.4
2244.9 2249.3 2253.8 2257.5 2260.3 2266 2272.3 2277.6 2283.2 2287.6 2290.7 2295.8 2300.5 2306.1 2312.6 2318.4 2325.5 2330.8 2334.3 2339 2342.9 2347.5 2350.9 2355.2 2361.2 2365.5 2374.2 2382.6 2389.7 2394.1 2402.1 2408.2 2414.5 2419.2 2420.9 2423.8 2429.4 2435.1 2440 2447.7 2454.6 2461.6 2470.6 2479.6 2486.9 2488.3 2492.7 2498.4 2506.7 2508.5 2509.5 2513.6 2522.8 2525.7 2531 2531.1 2534.8 2538.5 2537.8 2540.5 2545.9 2550.7 2556.6 2561.6 2566.4 2567.8 2570.9 2575.2 2576 2578.5 2583.3 2590.5 2600.7 2609.5 2619 2628.5 2635 2635.5 2635.3 2632.4 2626.2 2620.5 2614.2 2609.1 2613.1 2604.6 2594.9 2593 2590.7 2590.6 2590.3 2587.9 2583.1 2571.3 2545.3 2524.1 2504.4 2488.9 2464.5 2445.3 2425.7 2405.4 2385.6 2366.8 2347.7 2329.8 2312.1 2294.2 2276.1 2258.4 2241.5 2222.8 2205.1 2190 2175.2 2160 2141.7 2126.1 2112.4 2113.3 2108 2087.8 2069.8 2043.4 2026.1 2010.4 1992.6 1972 1950.9 1929.9 1924.9 1921 1918.9 1914.3 1910.1 1904.3 1897.3 1889 1882.4 1876.1 1869.3 1860.4 1856.6 1854.4 1849.9 1844.2 1837.1 1830.6 1824.3 1820.8 1817.2 1810.7 1806.7 1803.1 1801.7 1795.1 1789.3 1787.5 1785.5 1783.2 1781.6 1781 1781.3 1780.4 1780.1 1777 1770.3 1763.1 1756 1748 1740.2 1732.7 1725.4 1718.2 1710.7 1704.9 1698.5 1693.3 1687.2 1681.2 1676.4 1674.3 1674.6 1672.1 1670.1 1668.3 1666.4 1665.5 1663.8 1662.2 1662.4 1660.1 1657 1656 1654.2 1651.7 1649.8 1648 1645.9 1642.8 1638.8 1636.6 1636.3 1635.5 1632.3 1632.2 1631.4 1628.2 1622.7 1618.1 1615.1 1610.9 1608.4 1604.8 1601.2 1598.5 1597.1 1594.9 1593.6 1589.6 1587.8 1588.2 1589.8 1586.5 1587 1584.9 1588.9 1585.5 1579.1 1574 1570.4 1565.7 1559.1 1554.7 1550.5 1549.1 1551.8 1553.5 1549.2 1542.8 1698.1 1719 1528.6 1523.3 1520.9 1517.4 1512.7 1509.4
2240.9 2244.6 2249.8 2252.7 2258.3 2265.1 2270.4 2274.5 2279.2 2283 2287.5 2292.4 2297.7 2302.5 2306.8 2311.3 2317.4 2323.2 2327.9 2333.8 2340.2 2345.3 2348.9 2353.3 2358.3 2363.4 2369.7 2374.7 2381.8 2390 2398.8 2405 2406 2413.6 2414.2 2418 2424 2429.7 2437.2 2443.7 2449.4 2456.3 2466.2 2473.5 2479.1 2485.1 2487.7 2495 2503.3 2505 2507.2 2511 2516 2521.9 2522.4 2524.3 2529.2 2531.2 2531.4 2535.4 2541.3 2544.1 2549.5 2555.6 2560.7 2559.4 2565.3 2567.8 2570.9 2575.1 2582.3 2591.8 2601.1 2612.3 2623.9 2632 2641.7 2639.4 2640 2631.3 2626.9 2621.6 2612.2 2612.1 2611.6 2607.1 2595.6 2589.9 2589.5 2588.4 2588.5 2585.9 2582.8 2571.7 2551.2 2528 2511.6 2494.6 2469.7 2450.6 2433 2413.2 2383.3 2364.7 2346.8 2329.1 2311.4 2294.1 2276.8 2259.3 2242.2 2225.1 2207 2188.8 2170.9 2153.8 2135.8 2119.1 2100.4 2084.8 2065.4 2058 2039.3 2038.8 2016.5 1998.6 1983.6 1964.5 1945.7 1923.5 1920.5 1918.5 1916 1912.9 1908.1 1902.2 1895.2 1890.2 1883.7 1876 1868.3 1863 1858 1854.8 1850.4 1845.7 1840.1 1832.8 1827.2 1823.7 1818.4 1813.2 1808.7 1805.8 1805.9 1800.4 1791 1786.7 1784.8 1783.4 1782.7 1782.2 1781.3 1781.3 1781.7 1778.9 1772.1 1763.3 1756.3 1746.6 1737.4 1730.6 1722.5 1716.4 1709.8 1703.1 1697.7 1692 1687.4 1682.6 1678.2 1675.5 1672.9 1671 1669.9 1668 1666.4 1664.4 1663 1661 1660.9 1659.3 1657.9 1655.9 1653.4 1651.5 1650.3 1648 1645.7 1642.7 1640.5 1639.6 1638.8 1635.2 1634.9 1632.1 1630.3 1626.9 1624.4 1619.8 1615.8 1613.8 1608.7 1604.4 1601.6 1598.9 1598.1 1596.8 1596.2 1591.3 1586.9 1589.7 1590.1 1589.3 1589.7 1589.3 1588.7 1587.4 1584.8 1577.1 1572.4 1567.7 1562.2 1557.4 1552.2 1549.1 1551.3 1551.1 1548.4 1543.1 1539.6 1537.1 1532.7 1528.2 1523.9 1518.5 1514.6 1508.4
2236.8 2240.6 2246.5 2251.8 2257.7 2262.8 2266.9 2270.9 2275.2 2280.2 2284.8 2289.1 2293.8 2297.1 2300.4 2305 2310.6 2316.7 2322.3 2329.6 2336 2341.7 2345.7 2347.8 2351.7 2356.5 2361.7 2368.8 2376.8 2382.7 2392.2 2396.4 2398.9 2405.7 2407.2 2412.9 2418.3 2423.8 2430.5 2441.4 2446 2451 2459.1 2465.4 2474.2 2477.6 2482.5 2489.4 2493.8 2496.6 2500.8 2504.9 2508.5 2510.9 2514.2 2516.9 2521.4 2523 2525.2 2527.2 2535.1 2539.9 2544.7 2551.8 2552.3 2554.9 2561.2 2564.2 2568.1 2571.5 2581 2592.9 2603.2 2614.3 2625 2632.2 2641.3 2642.5 2638.9 2633.8 2630.2 2626.6 2622.2 2620.2 2614.8 2613.3 2605 2594.6 2589.7 2588.4 2587.7 2585.6 2582.6 2574.8 2555.5 2530.5 2509.8 2490.6 2470.1 2449.9 2430.8 2413.2 2386.8 2366.9 2349.2 2331.3 2314 2297.3 2280.8 2264 2245.7 2226.3 2208.2 2188.8 2171.1 2153.9 2135.6 2117.4 2099 2081.2 2063 2045.2 2027 2012.5 1999.6 1984 1974.1 1961.1 1941.7 1926 1923 1920.4 1916.7 1912.8 1906.9 1900.1 1893.3 1888.9 1883.7 1878.5 1872.7 1867 1864.4 1855.9 1851.6 1847.2 1842.3 1835.6 1830 1824.6 1820.1 1813.8 1809.6 1809.1 1806.4 1803.1 1793.7 1786.9 1785 1783.3 1782.1 1784.2 1785.1 1783.4 1780.3 1777.5 1771.2 1762.8 1755.1 1746.5 1738.7 1729.6 1721 1714.1 1707.8 1701.5 1695.8 1690.5 1686.5 1681.6 1678.5 1674.4 1672.1 1670.1 1668.9 1667.7 1666.9 1665.8 1662.1 1659.5 1660.2 1658.6 1657.5 1654.7 1652.9 1650.9 1649.9 1649.3 1646.5 1644.4 1643.2 1639.5 1637.4 1634.6 1632.6 1631.2 1629.8 1627.7 1625.3 1623.3 1620.1 1615.9 1611.5 1608.3 1603.9 1602.2 1600 1598.4 1595.4 1592.2 1591.8 1592.2 1592.4 1592.6 1591 1592.3 1590.2 1589.7 1584.7 1578.5 1577.1 1569.7 1565 1560.2 1554.2 1549.4 1549.8 1549.1 1547.3 1543.6 1541.1 1539.2 1533.6 1528.9 1523.2 1518.4 1513 1508.6
2230.6 2238.3 2243.9 2249.9 2255.2 2259.1 2263 2268 2273.7 2278.1 2282.2 2286.7 2290.6 2291.5 2293.9 2298 2305.2 2312.1 2317.6 2324.9 2333.2 2334.9 2335 2338.3 2341.7 2349.1 2355.5 2362.5 2368.9 2376.4 2381.3 2388.5 2394 2399.3 2401.6 2406.6 2411 2415.7 2424.6 2431.9 2435.9 2443 2454.9 2461.8 2464.4 2469.3 2476.1 2480.7 2483.6 2488.4 2494.5 2496.4 2500.5 2501.8 2506.7 2508.5 2512.6 2516.5 2519.2 2523 2527.9 2534.1 2540.4 2543 2544.6 2548.1 2555.2 2558.8 2563.3 2567 2577.9 2591.9 2605.1 2613.5 2620.1 2627 2635.3 2643.2 2640 2637.5 2640.4 2637.4 2636.2 2632.2 2628.4 2620.6 2613.1 2605.3 2596.8 2589.9 2586.5 2584.8 2580.1 2573.1 2556.3 2534.9 2513.7 2492.3 2471.9 2450.7 2430.5 2409.7 2391.4 2373.3 2356.1 2337.7 2319.9 2300.3 2281.7 2263.8 2246.5 2230.5 2211.1 2192.3 2174.8 2157.9 2140.4 2121.8 2103.8 2081.4 2062 2041.2 2023.4 2006.2 1991.9 1976.7 1963 1953.2 1938.4 1928.9 1927.1 1924 1918.2 1912.3 1905.2 1898.1 1890.8 1886.6 1887.6 1881.8 1874.8 1865.4 1857.8 1855.7 1851.3 1847.6 1841.9 1836.3 1830.1 1824.3 1819.2 1814.9 1812.3 1809.2 1806 1801.2 1794.5 1786.4 1784.5 1784 1783 1784.1 1786.7 1784.4 1780.5 1775.9 1770 1762.9 1754.3 1745.5 1737 1728.2 1719.4 1713.9 1707.4 1701.6 1694.9 1690.7 1685.1 1679.5 1676.7 1673.2 1671.1 1669.6 1668 1666.6 1666.1 1664 1662.3 1660.4 1659.1 1657 1656.7 1654.8 1652.3 1652.7 1651.4 1650.6 1647.2 1646.8 1644.6 1642.2 1640.7 1637.1 1632.7 1632.3 1629.6 1629.3 1627 1624.2 1620.7 1616.3 1613.7 1608.7 1606.4 1604.5 1603.5 1600.4 1598.4 1596.9 1593.4 1595.6 1596.9 1596.4 1593.7 1593.1 1591.4 1590 1584.9 1580.3 1575.7 1570.4 1565.9 1558.9 1552.6 1548.7 1547.1 1547.4 1546.6 1547.5 1544.3 1539.4 1534.8 1530.7 1523.9 1517.8 1513.3 1509.6
